ply
  format ascii 1.0
  element vertex 9239
  property float x
  property float y
  property float z
  property uchar red
  property uchar green
  property uchar blue
  end_header
1.687500 -8.250000 -25.000000 33 37 64 
1.750000 -8.250000 -25.000000 31 35 62 
1.812500 -8.250000 -25.000000 33 35 60 
-1.268519 -1.231481 -3.703704 26 29 60 
-1.258531 -1.230769 -3.701562 25 28 59 
-1.249277 -1.230769 -3.701562 27 30 61 
-1.180180 -1.198198 -3.603604 23 27 56 
-1.171171 -1.198198 -3.603604 25 29 56 
-1.162162 -1.198198 -3.603604 24 28 55 
1.625000 -8.312500 -25.000000 30 37 63 
1.687500 -8.312500 -25.000000 29 34 63 
1.750000 -8.312500 -25.000000 28 32 61 
1.812500 -8.312500 -25.000000 28 29 57 
1.875000 -8.312500 -25.000000 45 45 71 
-1.268519 -1.240741 -3.703704 31 34 65 
-1.258531 -1.240023 -3.701562 30 33 64 
-1.249277 -1.240023 -3.701562 29 32 63 
-1.189189 -1.207207 -3.603604 23 27 56 
-1.180180 -1.207207 -3.603604 21 25 54 
-1.171171 -1.207207 -3.603604 27 31 58 
-1.162162 -1.207207 -3.603604 22 26 53 
1.562500 -8.375000 -25.000000 28 39 61 
1.625000 -8.375000 -25.000000 30 37 63 
1.687500 -8.375000 -25.000000 30 37 65 
1.750000 -8.375000 -25.000000 29 33 62 
1.812500 -8.375000 -25.000000 27 31 60 
1.791045 -8.000000 -23.880596 41 41 69 
1.843866 -7.970260 -23.791822 29 29 53 
1.815603 -7.602837 -22.695036 57 54 75 
-1.267785 -1.249277 -3.701562 36 39 70 
-1.257803 -1.248555 -3.699422 34 37 68 
-1.248555 -1.248555 -3.699422 31 34 65 
-1.189189 -1.216216 -3.603604 24 28 57 
-1.180180 -1.216216 -3.603604 24 28 57 
-1.171171 -1.216216 -3.603604 27 31 58 
-1.162162 -1.216216 -3.603604 22 26 53 
-2.437500 -8.437500 -25.000000 24 35 55 
-2.375000 -8.437500 -25.000000 24 35 55 
-2.312500 -8.437500 -25.000000 24 35 55 
0.175824 -3.956044 -11.721612 32 35 54 
0.205128 -3.956044 -11.721612 30 33 50 
0.235294 -3.970588 -11.764706 28 31 48 
1.500000 -8.437500 -25.000000 25 38 57 
1.562500 -8.437500 -25.000000 27 38 60 
1.625000 -8.437500 -25.000000 30 37 63 
1.687500 -8.437500 -25.000000 31 38 66 
1.750000 -8.437500 -25.000000 31 34 65 
1.812500 -8.437500 -25.000000 29 32 63 
1.791045 -8.059702 -23.880596 30 29 60 
1.758865 -7.659575 -22.695036 32 32 58 
1.790210 -7.552447 -22.377623 49 45 68 
1.846154 -7.552447 -22.377623 42 39 56 
-1.267052 -1.257803 -3.699422 35 40 70 
-1.225225 -1.225225 -3.603604 36 39 70 
-1.216216 -1.225225 -3.603604 31 36 66 
-1.207207 -1.225225 -3.603604 27 30 61 
-1.198198 -1.225225 -3.603604 24 29 59 
-1.189189 -1.225225 -3.603604 28 32 61 
-1.180180 -1.225225 -3.603604 30 35 64 
-1.171171 -1.225225 -3.603604 27 31 58 
-1.162162 -1.225225 -3.603604 21 27 53 
-2.562500 -8.500000 -25.000000 27 38 58 
-2.500000 -8.500000 -25.000000 26 37 57 
-2.437500 -8.500000 -25.000000 25 36 56 
-2.375000 -8.500000 -25.000000 24 35 55 
-2.312500 -8.500000 -25.000000 24 35 55 
-2.250000 -8.500000 -25.000000 26 34 55 
0.058501 -3.978062 -11.700183 30 34 61 
0.087751 -3.978062 -11.700183 26 32 58 
0.116788 -3.970803 -11.678832 24 28 55 
0.145985 -3.970803 -11.678832 23 27 52 
0.174863 -3.963570 -11.657559 25 30 49 
0.204007 -3.963570 -11.657559 26 29 46 
0.233151 -3.963570 -11.657559 23 26 45 
0.262295 -3.963570 -11.657559 21 24 43 
1.500000 -8.500000 -25.000000 19 32 49 
1.562500 -8.500000 -25.000000 19 32 51 
1.625000 -8.500000 -25.000000 25 32 58 
1.687500 -8.500000 -25.000000 26 33 61 
1.750000 -8.500000 -25.000000 27 30 61 
1.812500 -8.500000 -25.000000 25 28 59 
1.791045 -8.119403 -23.880596 20 19 50 
1.765125 -7.743772 -22.775801 41 41 69 
1.790210 -7.608392 -22.377623 51 47 70 
1.839721 -7.581882 -22.299652 53 50 69 
-1.234234 -1.234234 -3.603604 31 38 67 
-1.225225 -1.234234 -3.603604 30 35 65 
-1.216216 -1.234234 -3.603604 31 38 67 
-1.207207 -1.234234 -3.603604 32 37 67 
-1.198198 -1.234234 -3.603604 27 34 63 
-1.189189 -1.234234 -3.603604 25 30 59 
-1.180180 -1.234234 -3.603604 25 32 60 
-1.171171 -1.234234 -3.603604 27 33 59 
-1.162162 -1.234234 -3.603604 22 29 55 
-2.625000 -8.562500 -25.000000 23 31 52 
-2.562500 -8.562500 -25.000000 23 31 52 
-2.500000 -8.562500 -25.000000 25 33 54 
-2.437500 -8.562500 -25.000000 26 34 55 
-2.375000 -8.562500 -25.000000 28 36 57 
-2.312500 -8.562500 -25.000000 29 37 58 
-2.250000 -8.562500 -25.000000 30 38 59 
-2.187500 -8.562500 -25.000000 31 39 60 
-0.029250 -4.007313 -11.700183 28 35 61 
0.000000 -3.992714 -11.657559 32 38 64 
0.029091 -3.985455 -11.636364 29 36 62 
0.058076 -3.978221 -11.615245 29 35 59 
0.086957 -3.971014 -11.594203 28 36 59 
0.115942 -3.971014 -11.594203 25 31 55 
0.144928 -3.971014 -11.594203 19 25 49 
0.173285 -3.956679 -11.552346 25 30 52 
0.202166 -3.956679 -11.552346 23 28 50 
0.231047 -3.956679 -11.552346 21 25 50 
0.259928 -3.956679 -11.552346 19 23 48 
0.288809 -3.956679 -11.552346 19 23 50 
0.320000 -3.985455 -11.636364 20 26 52 
0.591440 -4.264591 -12.451362 39 49 74 
0.622568 -4.264591 -12.451362 40 47 73 
1.500000 -8.562500 -25.000000 25 38 55 
1.562500 -8.562500 -25.000000 27 40 59 
1.625000 -8.562500 -25.000000 34 41 67 
1.687500 -8.562500 -25.000000 35 42 70 
1.750000 -8.562500 -25.000000 34 37 68 
1.812500 -8.562500 -25.000000 29 32 63 
1.791045 -8.179105 -23.880596 32 31 62 
1.771429 -7.828571 -22.857143 23 23 51 
1.790210 -7.664336 -22.377623 54 50 75 
1.814433 -7.532646 -21.993128 49 46 67 
1.869416 -7.532646 -21.993128 54 47 65 
-1.234234 -1.243243 -3.603604 26 33 62 
-1.225225 -1.243243 -3.603604 27 34 63 
-1.216216 -1.243243 -3.603604 31 38 67 
-1.207207 -1.243243 -3.603604 33 40 69 
-1.198198 -1.243243 -3.603604 29 36 65 
-1.189189 -1.243243 -3.603604 26 33 61 
-1.180180 -1.243243 -3.603604 26 33 61 
-1.171171 -1.243243 -3.603604 29 36 62 
-1.162162 -1.243243 -3.603604 25 32 58 
-2.687500 -8.625000 -25.000000 26 34 57 
-2.625000 -8.625000 -25.000000 24 32 55 
-2.562500 -8.625000 -25.000000 25 33 54 
-2.500000 -8.625000 -25.000000 26 34 55 
-2.437500 -8.625000 -25.000000 27 35 56 
-2.375000 -8.625000 -25.000000 28 36 57 
-2.312500 -8.625000 -25.000000 29 37 58 
-2.250000 -8.625000 -25.000000 30 38 59 
-2.187500 -8.625000 -25.000000 31 39 60 
-2.125000 -8.625000 -25.000000 34 42 63 
-0.058394 -4.029197 -11.678832 24 31 57 
-0.029091 -4.014545 -11.636364 28 35 61 
0.000000 -4.007259 -11.615245 31 38 64 
0.029038 -4.007259 -11.615245 29 36 62 
0.057762 -3.985559 -11.552346 28 36 59 
0.086486 -3.978378 -11.531531 27 35 58 
0.115315 -3.978378 -11.531531 23 31 54 
0.143885 -3.971223 -11.510792 18 26 49 
0.172352 -3.964093 -11.490126 23 27 52 
0.201077 -3.964093 -11.490126 23 27 52 
0.228980 -3.949911 -11.449017 23 27 54 
0.257143 -3.942857 -11.428572 23 27 54 
0.284192 -3.921847 -11.367673 22 27 56 
0.310954 -3.901060 -11.307421 23 28 57 
0.335664 -3.860140 -11.188811 23 28 60 
0.364273 -3.866900 -11.208406 23 28 60 
0.591440 -4.295720 -12.451362 36 46 71 
0.622568 -4.295720 -12.451362 36 47 69 
0.656250 -4.312500 -12.500000 33 46 65 
1.500000 -8.625000 -25.000000 22 35 52 
1.562500 -8.625000 -25.000000 25 38 57 
1.625000 -8.625000 -25.000000 33 41 64 
1.687500 -8.625000 -25.000000 35 42 68 
1.750000 -8.625000 -25.000000 35 38 69 
1.812500 -8.625000 -25.000000 32 35 66 
1.791045 -8.238806 -23.880596 32 31 62 
1.771429 -7.885714 -22.857143 33 33 61 
1.796491 -7.747368 -22.456141 42 38 63 
1.814433 -7.587629 -21.993128 53 50 71 
1.869416 -7.587629 -21.993128 56 52 69 
-1.266320 -1.284806 -3.697285 22 29 58 
-1.225225 -1.252252 -3.603604 24 31 60 
-1.216216 -1.252252 -3.603604 30 37 66 
-1.207207 -1.252252 -3.603604 33 40 69 
-1.198198 -1.252252 -3.603604 30 37 66 
-1.189189 -1.252252 -3.603604 28 35 63 
-1.180180 -1.252252 -3.603604 28 35 63 
-1.171171 -1.252252 -3.603604 30 37 63 
-1.162162 -1.252252 -3.603604 26 33 59 
-2.750000 -8.687500 -25.000000 29 36 62 
-2.687500 -8.687500 -25.000000 27 35 58 
-2.625000 -8.687500 -25.000000 26 34 57 
-2.562500 -8.687500 -25.000000 26 34 55 
-2.500000 -8.687500 -25.000000 27 35 56 
-2.437500 -8.687500 -25.000000 28 36 57 
-2.375000 -8.687500 -25.000000 29 37 58 
-2.312500 -8.687500 -25.000000 30 38 59 
-2.250000 -8.687500 -25.000000 31 39 60 
-2.187500 -8.687500 -25.000000 31 39 60 
-2.125000 -8.687500 -25.000000 31 39 60 
-0.058182 -4.043636 -11.636364 24 31 57 
-0.029038 -4.036298 -11.615245 29 36 62 
0.000000 -4.000000 -11.510792 30 37 63 
0.028725 -3.992819 -11.490126 28 35 61 
0.057348 -3.985663 -11.469534 27 35 58 
0.085868 -3.978533 -11.449017 27 35 58 
0.114490 -3.978533 -11.449017 23 31 54 
0.142857 -3.971429 -11.428572 17 25 48 
0.171429 -3.971429 -11.428572 21 25 50 
0.200000 -3.971429 -11.428572 23 27 52 
0.228164 -3.964349 -11.408199 24 28 55 
0.255773 -3.950266 -11.367673 26 30 57 
0.282686 -3.929329 -11.307421 26 31 60 
0.308231 -3.894921 -11.208406 25 30 59 
0.335079 -3.881326 -11.169285 24 29 61 
0.363002 -3.881326 -11.169285 23 28 60 
0.392294 -3.894921 -11.208406 27 33 65 
0.625000 -4.343750 -12.500000 34 45 67 
0.656250 -4.343750 -12.500000 32 45 64 
0.690196 -4.360785 -12.549020 24 37 53 
1.500000 -8.687500 -25.000000 20 33 50 
1.562500 -8.687500 -25.000000 22 35 54 
1.625000 -8.687500 -25.000000 29 37 60 
1.687500 -8.687500 -25.000000 31 38 64 
1.750000 -8.687500 -25.000000 32 35 66 
1.812500 -8.687500 -25.000000 29 32 63 
1.791045 -8.298508 -23.880596 32 31 62 
1.771429 -7.942857 -22.857143 41 41 69 
1.796491 -7.803509 -22.456141 32 28 55 
1.820690 -7.668965 -22.068966 57 53 76 
1.875862 -7.668965 -22.068966 57 53 70 
-1.266320 -1.294050 -3.697285 21 28 57 
-1.256351 -1.293303 -3.695150 22 29 58 
-1.247113 -1.293303 -3.695150 27 34 63 
-1.189189 -1.261261 -3.603604 29 36 64 
-1.180180 -1.261261 -3.603604 31 38 66 
-1.171171 -1.261261 -3.603604 30 37 63 
-1.162162 -1.261261 -3.603604 26 33 59 
-2.812500 -8.750000 -25.000000 28 35 61 
-2.750000 -8.750000 -25.000000 26 33 59 
-2.687500 -8.750000 -25.000000 24 31 57 
-2.625000 -8.750000 -25.000000 28 36 59 
-2.562500 -8.750000 -25.000000 28 36 57 
-2.500000 -8.750000 -25.000000 28 36 57 
-2.437500 -8.750000 -25.000000 29 37 58 
-2.375000 -8.750000 -25.000000 29 37 58 
-2.312500 -8.750000 -25.000000 30 38 59 
-2.250000 -8.750000 -25.000000 31 39 60 
-2.187500 -8.750000 -25.000000 31 39 60 
-0.028829 -4.036036 -11.531531 29 36 62 
0.000000 -4.007155 -11.449017 30 37 63 
0.028571 -4.000000 -11.428572 27 34 60 
0.057041 -3.992870 -11.408199 26 34 57 
0.085561 -3.992870 -11.408199 26 34 57 
0.114082 -3.992870 -11.408199 22 30 53 
0.142602 -3.992870 -11.408199 17 25 48 
0.171123 -3.992870 -11.408199 21 25 50 
0.199643 -3.992870 -11.408199 22 26 51 
0.227758 -3.985765 -11.387900 23 27 54 
0.255773 -3.978686 -11.367673 25 29 56 
0.283186 -3.964602 -11.327434 25 30 59 
0.308772 -3.929825 -11.228070 25 30 59 
0.336252 -3.922942 -11.208406 25 30 62 
0.364273 -3.922942 -11.208406 25 30 62 
0.392294 -3.922942 -11.208406 31 37 69 
0.424028 -3.957597 -11.307421 29 36 65 
0.627451 -4.392157 -12.549020 33 44 66 
0.658824 -4.392157 -12.549020 34 45 65 
0.690196 -4.392157 -12.549020 27 40 56 
1.437500 -8.750000 -25.000000 22 38 51 
1.500000 -8.750000 -25.000000 21 34 51 
1.562500 -8.750000 -25.000000 21 34 53 
1.625000 -8.750000 -25.000000 25 33 56 
1.687500 -8.750000 -25.000000 25 32 58 
1.750000 -8.750000 -25.000000 25 30 59 
1.812500 -8.750000 -25.000000 24 27 58 
1.791045 -8.358209 -23.880596 32 33 63 
1.777778 -8.028674 -22.939068 39 39 67 
1.796491 -7.859649 -22.456141 35 32 59 
1.820690 -7.724138 -22.068966 57 53 76 
1.875862 -7.724138 -22.068966 53 48 68 
-1.266320 -1.303293 -3.697285 23 30 59 
-1.256351 -1.302540 -3.695150 21 28 57 
-1.247113 -1.302540 -3.695150 25 32 61 
-1.180180 -1.270270 -3.603604 32 39 67 
-1.171171 -1.270270 -3.603604 32 39 65 
-1.162162 -1.270270 -3.603604 29 36 62 
-2.875000 -8.812500 -25.000000 27 34 60 
-2.812500 -8.812500 -25.000000 27 34 60 
-2.750000 -8.812500 -25.000000 26 33 59 
-2.687500 -8.812500 -25.000000 24 31 57 
-2.625000 -8.812500 -25.000000 29 37 60 
-2.562500 -8.812500 -25.000000 29 37 60 
-2.500000 -8.812500 -25.000000 29 37 60 
-2.437500 -8.812500 -25.000000 29 37 60 
-2.375000 -8.812500 -25.000000 29 37 60 
-2.312500 -8.812500 -25.000000 29 37 60 
-2.250000 -8.812500 -25.000000 30 38 61 
-2.187500 -8.812500 -25.000000 30 38 61 
0.000000 -4.028572 -11.428572 30 37 63 
0.028419 -4.007105 -11.367673 26 33 59 
0.056838 -4.007105 -11.367673 25 33 56 
0.085258 -4.007105 -11.367673 25 33 56 
0.113677 -4.007105 -11.367673 22 30 53 
0.142096 -4.007105 -11.367673 17 25 48 
0.170515 -4.007105 -11.367673 22 26 51 
0.199288 -4.014235 -11.387900 21 25 50 
0.227353 -4.007105 -11.367673 21 25 52 
0.255773 -4.007105 -11.367673 21 25 52 
0.283688 -4.000000 -11.347518 21 26 55 
0.310406 -3.978836 -11.287477 24 29 58 
0.336842 -3.957895 -11.228070 27 32 64 
0.364912 -3.957895 -11.228070 28 33 65 
0.395062 -3.978836 -11.287477 33 39 71 
0.425532 -4.000000 -11.347518 32 39 68 
0.593750 -4.406250 -12.500000 30 40 65 
0.626223 -4.414873 -12.524462 33 44 66 
0.657534 -4.414873 -12.524462 36 47 67 
0.690196 -4.423530 -12.549020 27 40 56 
0.721569 -4.423530 -12.549020 25 39 52 
1.500000 -8.812500 -25.000000 22 35 52 
1.562500 -8.812500 -25.000000 20 33 52 
1.625000 -8.812500 -25.000000 23 31 54 
1.687500 -8.812500 -25.000000 23 30 56 
1.750000 -8.812500 -25.000000 23 28 57 
1.812500 -8.812500 -25.000000 23 27 56 
1.791045 -8.417911 -23.880596 33 34 64 
1.777778 -8.086021 -22.939068 31 31 59 
1.802817 -7.943662 -22.535212 45 42 69 
1.820690 -7.779310 -22.068966 53 51 73 
1.831650 -7.595960 -21.548822 47 44 63 
1.885522 -7.595960 -21.548822 68 65 82 
-1.266320 -1.312536 -3.697285 25 32 61 
-1.257077 -1.312536 -3.697285 22 29 58 
-1.247834 -1.312536 -3.697285 25 32 61 
-1.180180 -1.279279 -3.603604 32 39 67 
-1.171171 -1.279279 -3.603604 35 42 68 
-1.162162 -1.279279 -3.603604 32 39 65 
-2.937500 -8.875000 -25.000000 27 34 60 
-2.875000 -8.875000 -25.000000 29 36 62 
-2.812500 -8.875000 -25.000000 29 36 62 
-2.750000 -8.875000 -25.000000 29 36 62 
-2.687500 -8.875000 -25.000000 28 35 61 
-2.625000 -8.875000 -25.000000 29 37 60 
-2.562500 -8.875000 -25.000000 29 37 60 
-2.500000 -8.875000 -25.000000 29 37 60 
-2.437500 -8.875000 -25.000000 29 37 60 
-2.375000 -8.875000 -25.000000 28 36 59 
-2.312500 -8.875000 -25.000000 28 36 59 
-2.250000 -8.875000 -25.000000 28 36 59 
-2.187500 -8.875000 -25.000000 28 36 59 
0.000000 -4.042705 -11.387900 29 36 62 
0.028319 -4.021239 -11.327434 25 32 58 
0.056637 -4.021239 -11.327434 23 31 54 
0.084956 -4.021239 -11.327434 24 32 55 
0.113274 -4.021239 -11.327434 21 29 52 
0.141844 -4.028369 -11.347518 16 24 47 
0.170213 -4.028369 -11.347518 22 26 51 
0.198934 -4.035524 -11.367673 21 25 50 
0.227353 -4.035524 -11.367673 19 23 50 
0.255773 -4.035524 -11.367673 19 23 50 
0.284192 -4.035524 -11.367673 20 25 54 
0.310954 -4.014134 -11.307421 24 29 58 
0.338624 -4.007055 -11.287477 28 33 65 
0.366843 -4.007055 -11.287477 30 35 67 
0.395760 -4.014134 -11.307421 33 39 71 
0.427046 -4.042705 -11.387900 33 40 69 
0.562500 -4.437500 -12.500000 28 38 63 
0.593750 -4.437500 -12.500000 30 40 65 
0.625000 -4.437500 -12.500000 34 45 67 
0.657534 -4.446184 -12.524462 37 48 68 
0.687500 -4.437500 -12.500000 24 37 53 
0.720157 -4.446184 -12.524462 23 36 52 
1.500000 -8.875000 -25.000000 22 35 52 
1.562500 -8.875000 -25.000000 21 32 52 
1.625000 -8.875000 -25.000000 23 31 54 
1.687500 -8.875000 -25.000000 24 31 57 
1.750000 -8.875000 -25.000000 26 31 60 
1.812500 -8.875000 -25.000000 27 32 61 
1.791045 -8.477612 -23.880596 32 33 63 
1.777778 -8.143369 -22.939068 28 29 57 
1.802817 -8.000000 -22.535212 45 45 71 
1.826990 -7.861592 -22.145329 51 49 73 
1.831650 -7.649832 -21.548822 47 44 65 
1.885522 -7.649832 -21.548822 69 66 85 
-1.266320 -1.321779 -3.697285 23 30 59 
-1.257077 -1.321779 -3.697285 24 31 60 
-1.247834 -1.321779 -3.697285 30 37 66 
-1.180180 -1.288288 -3.603604 31 38 66 
-1.171171 -1.288288 -3.603604 33 40 66 
-1.162162 -1.288288 -3.603604 31 38 64 
-2.937500 -8.937500 -25.000000 28 35 61 
-2.875000 -8.937500 -25.000000 29 36 62 
-2.812500 -8.937500 -25.000000 31 38 64 
-2.750000 -8.937500 -25.000000 31 38 64 
-2.687500 -8.937500 -25.000000 31 38 64 
-2.625000 -8.937500 -25.000000 29 37 60 
-2.562500 -8.937500 -25.000000 29 37 60 
-2.500000 -8.937500 -25.000000 28 36 59 
-2.437500 -8.937500 -25.000000 28 36 59 
-2.375000 -8.937500 -25.000000 27 35 58 
-2.312500 -8.937500 -25.000000 27 35 58 
-2.250000 -8.937500 -25.000000 26 34 57 
-2.187500 -8.937500 -25.000000 26 34 57 
0.028319 -4.049558 -11.327434 25 32 58 
0.056140 -4.014035 -11.228070 23 31 54 
0.084211 -4.014035 -11.228070 23 31 54 
0.112875 -4.035274 -11.287477 21 29 52 
0.141093 -4.035274 -11.287477 16 24 47 
0.169611 -4.042403 -11.307421 20 24 49 
0.198582 -4.056737 -11.347518 20 24 49 
0.227353 -4.063943 -11.367673 21 25 52 
0.255773 -4.063943 -11.367673 22 26 53 
0.283688 -4.056737 -11.347518 23 28 57 
0.311504 -4.049558 -11.327434 26 31 60 
0.339223 -4.042403 -11.307421 29 34 66 
0.367491 -4.042403 -11.307421 31 36 68 
0.398576 -4.071174 -11.387900 30 36 68 
0.427046 -4.071174 -11.387900 31 38 67 
0.593750 -4.468750 -12.500000 29 39 64 
0.625000 -4.468750 -12.500000 32 43 65 
0.657534 -4.477495 -12.524462 36 47 67 
0.688845 -4.477495 -12.524462 26 39 56 
1.437500 -8.937500 -25.000000 26 39 55 
1.500000 -8.937500 -25.000000 25 36 54 
1.562500 -8.937500 -25.000000 23 34 54 
1.625000 -8.937500 -25.000000 23 31 54 
1.687500 -8.937500 -25.000000 24 31 57 
1.750000 -8.937500 -25.000000 27 32 61 
1.812500 -8.937500 -25.000000 28 33 62 
1.797753 -8.569288 -23.970037 30 31 59 
1.790614 -8.259928 -23.104692 36 37 65 
1.809187 -8.084805 -22.614841 33 33 59 
1.833333 -7.944445 -22.222221 49 49 73 
1.850340 -7.782313 -21.768707 54 52 74 
1.904762 -7.782313 -21.768707 60 58 79 
-1.267052 -1.331792 -3.699422 21 28 57 
-1.257077 -1.331023 -3.697285 25 32 61 
-1.247834 -1.331023 -3.697285 33 40 69 
-1.180180 -1.297297 -3.603604 30 37 65 
-1.171171 -1.297297 -3.603604 30 37 63 
-1.162162 -1.297297 -3.603604 28 35 61 
-3.000000 -9.000000 -25.000000 26 33 59 
-2.937500 -9.000000 -25.000000 26 33 59 
-2.875000 -9.000000 -25.000000 28 35 61 
-2.812500 -9.000000 -25.000000 31 38 64 
-2.750000 -9.000000 -25.000000 32 39 65 
-2.687500 -9.000000 -25.000000 31 38 64 
-2.625000 -9.000000 -25.000000 29 37 60 
-2.562500 -9.000000 -25.000000 28 36 59 
-2.500000 -9.000000 -25.000000 28 36 59 
-2.437500 -9.000000 -25.000000 27 35 58 
-2.375000 -9.000000 -25.000000 26 34 57 
-2.312500 -9.000000 -25.000000 26 34 57 
-2.250000 -9.000000 -25.000000 25 33 56 
-2.187500 -9.000000 -25.000000 25 33 56 
0.028070 -4.042105 -11.228070 24 31 57 
0.055846 -4.020942 -11.169285 22 30 53 
0.083770 -4.020942 -11.169285 23 31 54 
0.111888 -4.027972 -11.188811 20 28 51 
0.140105 -4.035026 -11.208406 16 24 47 
0.169312 -4.063492 -11.287477 19 23 48 
0.197880 -4.070672 -11.307421 20 24 49 
0.226950 -4.085106 -11.347518 23 27 54 
0.255773 -4.092362 -11.367673 26 30 57 
0.283688 -4.085106 -11.347518 28 33 62 
0.312057 -4.085106 -11.347518 29 34 63 
0.339823 -4.077876 -11.327434 30 35 67 
0.368142 -4.077876 -11.327434 30 35 67 
0.398576 -4.099644 -11.387900 27 33 65 
0.427046 -4.099644 -11.387900 29 36 65 
0.455516 -4.099644 -11.387900 29 38 67 
1.500000 -9.000000 -25.000000 29 40 58 
1.562500 -9.000000 -25.000000 25 36 56 
1.625000 -9.000000 -25.000000 23 31 54 
1.687500 -9.000000 -25.000000 22 30 53 
1.750000 -9.000000 -25.000000 24 30 56 
1.812500 -9.000000 -25.000000 26 31 60 
1.804511 -8.661654 -24.060150 25 29 56 
1.823529 -8.470589 -23.529411 46 47 75 
1.822064 -8.199288 -22.775801 19 19 45 
1.833333 -8.000000 -22.222221 50 50 76 
1.856655 -7.863481 -21.843004 59 59 83 
1.911263 -7.863481 -21.843004 51 49 71 
2.250000 -9.000000 -25.000000 43 41 62 
-1.267052 -1.341040 -3.699422 24 31 60 
-1.257077 -1.340266 -3.697285 29 36 65 
-1.247834 -1.340266 -3.697285 33 40 69 
-1.180180 -1.306306 -3.603604 28 35 63 
-1.171171 -1.306306 -3.603604 27 34 60 
-1.162162 -1.306306 -3.603604 30 37 63 
-3.062500 -9.062500 -25.000000 31 38 64 
-3.000000 -9.062500 -25.000000 30 37 63 
-2.937500 -9.062500 -25.000000 29 36 62 
-2.875000 -9.062500 -25.000000 28 35 61 
-2.812500 -9.062500 -25.000000 27 34 60 
-2.750000 -9.062500 -25.000000 27 34 60 
-2.687500 -9.062500 -25.000000 26 33 59 
-2.625000 -9.062500 -25.000000 25 32 58 
-2.562500 -9.062500 -25.000000 25 32 58 
-2.500000 -9.062500 -25.000000 24 31 57 
-2.437500 -9.062500 -25.000000 22 29 55 
-2.375000 -9.062500 -25.000000 21 28 54 
-2.312500 -9.062500 -25.000000 23 30 56 
-2.250000 -9.062500 -25.000000 28 35 61 
-2.187500 -9.062500 -25.000000 31 38 64 
0.027972 -4.055944 -11.188811 27 34 60 
0.055652 -4.034782 -11.130435 20 28 51 
0.083478 -4.034782 -11.130435 19 27 50 
0.111498 -4.041812 -11.149826 19 27 50 
0.139860 -4.055944 -11.188811 18 26 49 
0.168126 -4.063047 -11.208406 23 27 52 
0.197531 -4.091711 -11.287477 23 27 52 
0.226950 -4.113475 -11.347518 23 27 54 
0.255319 -4.113475 -11.347518 26 30 57 
0.283688 -4.113475 -11.347518 29 34 63 
0.312057 -4.113475 -11.347518 31 36 65 
0.340426 -4.113475 -11.347518 32 37 69 
0.368794 -4.113475 -11.347518 31 36 68 
0.398576 -4.128114 -11.387900 30 36 68 
0.427046 -4.128114 -11.387900 28 35 64 
0.455516 -4.128114 -11.387900 27 36 65 
0.485714 -4.142857 -11.428572 30 40 67 
1.562500 -9.062500 -25.000000 24 35 55 
1.625000 -9.062500 -25.000000 24 32 55 
1.687500 -9.062500 -25.000000 24 32 55 
1.750000 -9.062500 -25.000000 25 31 57 
1.812500 -9.062500 -25.000000 25 31 57 
1.875000 -9.062500 -25.000000 32 36 63 
1.843866 -8.624536 -23.791822 30 34 61 
1.835125 -8.315413 -22.939068 35 36 64 
1.846154 -8.111888 -22.377623 42 44 69 
1.888889 -8.055555 -22.222221 47 49 74 
2.066421 -8.560885 -23.616236 49 49 73 
2.250000 -9.062500 -25.000000 52 52 76 
2.312500 -9.062500 -25.000000 59 57 78 
-1.267785 -1.351070 -3.701562 26 33 62 
-1.257803 -1.350289 -3.699422 28 35 64 
-1.248555 -1.350289 -3.699422 30 37 66 
-1.180180 -1.315315 -3.603604 31 38 66 
-1.171171 -1.315315 -3.603604 30 37 63 
-1.162162 -1.315315 -3.603604 31 38 64 
-3.125000 -9.125000 -25.000000 31 38 64 
-3.062500 -9.125000 -25.000000 31 38 64 
-3.000000 -9.125000 -25.000000 30 37 63 
-2.937500 -9.125000 -25.000000 29 36 62 
-2.875000 -9.125000 -25.000000 29 36 62 
-2.812500 -9.125000 -25.000000 28 35 61 
-2.750000 -9.125000 -25.000000 28 35 61 
-2.687500 -9.125000 -25.000000 27 34 60 
-2.625000 -9.125000 -25.000000 27 34 60 
-2.562500 -9.125000 -25.000000 26 33 59 
-2.500000 -9.125000 -25.000000 25 32 58 
-2.437500 -9.125000 -25.000000 23 30 56 
-2.375000 -9.125000 -25.000000 22 29 55 
-2.312500 -9.125000 -25.000000 24 31 57 
-2.250000 -9.125000 -25.000000 27 34 60 
-2.187500 -9.125000 -25.000000 31 38 64 
-2.125000 -9.125000 -25.000000 24 31 57 
0.055652 -4.062609 -11.130435 22 30 53 
0.083478 -4.062609 -11.130435 21 29 52 
0.111498 -4.069686 -11.149826 22 30 53 
0.139373 -4.069686 -11.149826 21 29 52 
0.168126 -4.091068 -11.208406 26 30 55 
0.197183 -4.112676 -11.267606 25 29 54 
0.226549 -4.134513 -11.327434 25 29 56 
0.255319 -4.141844 -11.347518 27 31 58 
0.283688 -4.141844 -11.347518 30 35 64 
0.312057 -4.141844 -11.347518 33 38 67 
0.340426 -4.141844 -11.347518 34 39 71 
0.368794 -4.141844 -11.347518 33 38 70 
0.398576 -4.156584 -11.387900 29 35 67 
0.427046 -4.156584 -11.387900 26 33 62 
0.455516 -4.156584 -11.387900 25 34 63 
0.483986 -4.156584 -11.387900 28 38 65 
0.514286 -4.171429 -11.428572 28 38 63 
0.542857 -4.171429 -11.428572 25 35 60 
0.571429 -4.171429 -11.428572 25 36 58 
0.600000 -4.171429 -11.428572 27 38 58 
0.628571 -4.171429 -11.428572 33 44 64 
1.500000 -9.125000 -25.000000 31 42 62 
1.562500 -9.125000 -25.000000 29 40 60 
1.625000 -9.125000 -25.000000 29 37 60 
1.687500 -9.125000 -25.000000 27 35 58 
1.750000 -9.125000 -25.000000 27 33 59 
1.812500 -9.125000 -25.000000 27 33 59 
1.875000 -9.125000 -25.000000 30 34 61 
1.937500 -9.125000 -25.000000 29 33 60 
1.882353 -8.588235 -23.529411 35 36 64 
1.892473 -8.372760 -22.939068 43 44 72 
1.992674 -8.556777 -23.443224 47 49 74 
2.187500 -9.125000 -25.000000 47 49 74 
2.250000 -9.125000 -25.000000 49 51 76 
2.312500 -9.125000 -25.000000 55 56 77 
2.375000 -9.125000 -25.000000 61 60 78 
-1.267785 -1.360324 -3.701562 27 34 63 
-1.257803 -1.359538 -3.699422 27 34 63 
-1.248555 -1.359538 -3.699422 28 35 64 
-1.189189 -1.324324 -3.603604 32 39 67 
-1.180180 -1.324324 -3.603604 33 40 68 
-1.171171 -1.324324 -3.603604 32 39 65 
-1.162162 -1.324324 -3.603604 32 39 65 
-3.187500 -9.187500 -25.000000 29 36 62 
-3.125000 -9.187500 -25.000000 30 37 63 
-3.062500 -9.187500 -25.000000 30 37 63 
-3.000000 -9.187500 -25.000000 30 37 63 
-2.937500 -9.187500 -25.000000 29 36 62 
-2.875000 -9.187500 -25.000000 29 36 62 
-2.812500 -9.187500 -25.000000 29 36 62 
-2.750000 -9.187500 -25.000000 29 36 62 
-2.687500 -9.187500 -25.000000 29 36 62 
-2.625000 -9.187500 -25.000000 29 36 62 
-2.562500 -9.187500 -25.000000 29 36 62 
-2.500000 -9.187500 -25.000000 28 35 61 
-2.437500 -9.187500 -25.000000 25 32 58 
-2.375000 -9.187500 -25.000000 23 30 56 
-2.312500 -9.187500 -25.000000 24 31 57 
-2.250000 -9.187500 -25.000000 27 34 60 
-2.187500 -9.187500 -25.000000 30 37 63 
-2.125000 -9.187500 -25.000000 27 34 60 
-2.062500 -9.187500 -25.000000 26 33 59 
0.169014 -4.140845 -11.267606 29 33 58 
0.197880 -4.155477 -11.307421 27 31 56 
0.226549 -4.162832 -11.327434 26 30 57 
0.255319 -4.170213 -11.347518 28 32 59 
0.284192 -4.177620 -11.367673 30 35 64 
0.312611 -4.177620 -11.367673 34 39 68 
0.340426 -4.170213 -11.347518 35 40 72 
0.368794 -4.170213 -11.347518 35 40 72 
0.397869 -4.177620 -11.367673 28 34 66 
0.427046 -4.185053 -11.387900 25 32 61 
0.455516 -4.185053 -11.387900 23 32 61 
0.483986 -4.185053 -11.387900 26 36 63 
0.513369 -4.192513 -11.408199 26 36 61 
0.541889 -4.192513 -11.408199 23 33 58 
0.571429 -4.200000 -11.428572 23 34 56 
0.600000 -4.200000 -11.428572 26 37 57 
0.627451 -4.192513 -11.408199 30 41 61 
0.655971 -4.192513 -11.408199 30 41 59 
1.500000 -9.187500 -25.000000 30 41 61 
1.562500 -9.187500 -25.000000 29 40 60 
1.625000 -9.187500 -25.000000 28 36 59 
1.687500 -9.187500 -25.000000 25 33 56 
1.750000 -9.187500 -25.000000 23 31 54 
1.812500 -9.187500 -25.000000 21 29 52 
1.875000 -9.187500 -25.000000 27 33 59 
1.937500 -9.187500 -25.000000 27 33 59 
2.000000 -9.187500 -25.000000 33 37 64 
2.062500 -9.187500 -25.000000 41 45 72 
2.125000 -9.187500 -25.000000 45 49 76 
2.187500 -9.187500 -25.000000 44 48 75 
2.250000 -9.187500 -25.000000 45 49 76 
2.312500 -9.187500 -25.000000 50 52 75 
2.375000 -9.187500 -25.000000 55 56 76 
2.437500 -9.187500 -25.000000 49 48 66 
-1.267052 -1.368786 -3.699422 27 34 63 
-1.255626 -1.366417 -3.693018 28 35 64 
-1.247834 -1.367995 -3.697285 28 35 64 
-1.189189 -1.333333 -3.603604 31 38 66 
-1.180180 -1.333333 -3.603604 32 39 67 
-1.171171 -1.333333 -3.603604 31 38 64 
-1.162162 -1.333333 -3.603604 31 38 64 
-3.250000 -9.250000 -25.000000 29 36 62 
-3.187500 -9.250000 -25.000000 29 36 62 
-3.125000 -9.250000 -25.000000 29 36 62 
-3.062500 -9.250000 -25.000000 29 36 62 
-3.000000 -9.250000 -25.000000 29 36 62 
-2.937500 -9.250000 -25.000000 30 37 63 
-2.875000 -9.250000 -25.000000 30 37 63 
-2.812500 -9.250000 -25.000000 30 37 63 
-2.750000 -9.250000 -25.000000 30 37 63 
-2.687500 -9.250000 -25.000000 30 37 63 
-2.625000 -9.250000 -25.000000 31 38 64 
-2.562500 -9.250000 -25.000000 31 38 64 
-2.500000 -9.250000 -25.000000 30 37 63 
-2.437500 -9.250000 -25.000000 27 34 60 
-2.375000 -9.250000 -25.000000 25 32 58 
-2.312500 -9.250000 -25.000000 24 31 57 
-2.250000 -9.250000 -25.000000 26 33 59 
-2.187500 -9.250000 -25.000000 29 36 62 
-2.125000 -9.250000 -25.000000 28 35 61 
-2.062500 -9.250000 -25.000000 27 34 60 
0.226549 -4.191151 -11.327434 27 31 58 
0.255773 -4.206039 -11.367673 28 32 59 
0.284192 -4.206039 -11.367673 30 35 64 
0.312611 -4.206039 -11.367673 33 38 67 
0.340426 -4.198582 -11.347518 35 40 72 
0.368794 -4.198582 -11.347518 36 41 73 
0.397869 -4.206039 -11.367673 30 36 68 
0.427046 -4.213523 -11.387900 26 33 62 
0.455516 -4.213523 -11.387900 24 33 62 
0.483986 -4.213523 -11.387900 26 36 63 
0.513369 -4.221034 -11.408199 26 36 61 
0.541889 -4.221034 -11.408199 23 33 58 
0.571429 -4.228571 -11.428572 23 34 56 
0.600000 -4.228571 -11.428572 26 37 59 
0.628571 -4.228571 -11.428572 28 39 59 
1.437500 -9.250000 -25.000000 29 40 58 
1.500000 -9.250000 -25.000000 30 41 61 
1.562500 -9.250000 -25.000000 29 40 60 
1.625000 -9.250000 -25.000000 29 37 60 
1.687500 -9.250000 -25.000000 25 33 56 
1.750000 -9.250000 -25.000000 21 29 52 
1.812500 -9.250000 -25.000000 18 26 49 
1.875000 -9.250000 -25.000000 26 32 58 
1.937500 -9.250000 -25.000000 26 32 58 
2.000000 -9.250000 -25.000000 32 36 63 
2.062500 -9.250000 -25.000000 40 44 71 
2.125000 -9.250000 -25.000000 44 48 75 
2.187500 -9.250000 -25.000000 42 46 73 
2.250000 -9.250000 -25.000000 42 46 75 
2.312500 -9.250000 -25.000000 44 48 73 
2.375000 -9.250000 -25.000000 59 61 84 
2.437500 -9.250000 -25.000000 44 45 65 
2.500000 -9.250000 -25.000000 60 59 77 
-1.266320 -1.377239 -3.697285 27 34 63 
-1.241301 -1.359954 -3.650884 29 36 65 
-1.232173 -1.359954 -3.650884 31 38 67 
-1.223046 -1.359954 -3.650884 31 38 67 
-1.207718 -1.353008 -3.632236 31 38 67 
-1.189189 -1.342342 -3.603604 30 37 65 
-1.180180 -1.342342 -3.603604 29 36 64 
-1.171171 -1.342342 -3.603604 29 36 62 
-1.162162 -1.342342 -3.603604 29 36 62 
-3.312500 -9.312500 -25.000000 30 37 63 
-3.250000 -9.312500 -25.000000 29 36 62 
-3.187500 -9.312500 -25.000000 29 36 62 
-3.125000 -9.312500 -25.000000 30 37 63 
-3.062500 -9.312500 -25.000000 30 37 63 
-3.000000 -9.312500 -25.000000 30 37 63 
-2.937500 -9.312500 -25.000000 30 37 63 
-2.875000 -9.312500 -25.000000 30 37 63 
-2.812500 -9.312500 -25.000000 31 38 64 
-2.750000 -9.312500 -25.000000 31 38 64 
-2.687500 -9.312500 -25.000000 31 38 64 
-2.625000 -9.312500 -25.000000 31 38 66 
-2.562500 -9.312500 -25.000000 32 39 67 
-2.500000 -9.312500 -25.000000 31 38 66 
-2.437500 -9.312500 -25.000000 28 35 63 
-2.375000 -9.312500 -25.000000 26 33 61 
-2.312500 -9.312500 -25.000000 25 32 60 
-2.250000 -9.312500 -25.000000 26 33 61 
-2.187500 -9.312500 -25.000000 28 35 63 
-2.125000 -9.312500 -25.000000 27 34 62 
-2.062500 -9.312500 -25.000000 26 33 61 
0.369449 -4.234458 -11.367673 34 39 71 
0.398576 -4.241993 -11.387900 33 39 71 
0.427046 -4.241993 -11.387900 29 36 65 
0.455516 -4.241993 -11.387900 26 35 64 
0.484848 -4.249554 -11.408199 27 37 64 
0.513369 -4.249554 -11.408199 27 37 62 
0.541889 -4.249554 -11.408199 24 34 59 
1.500000 -9.312500 -25.000000 34 45 65 
1.562500 -9.312500 -25.000000 34 45 65 
1.625000 -9.312500 -25.000000 34 42 63 
1.687500 -9.312500 -25.000000 29 37 58 
1.750000 -9.312500 -25.000000 25 33 56 
1.812500 -9.312500 -25.000000 22 30 53 
1.875000 -9.312500 -25.000000 25 32 58 
1.937500 -9.312500 -25.000000 25 32 58 
2.000000 -9.312500 -25.000000 31 36 65 
2.062500 -9.312500 -25.000000 39 44 73 
2.125000 -9.312500 -25.000000 42 47 76 
2.187500 -9.312500 -25.000000 40 45 74 
2.250000 -9.312500 -25.000000 39 44 74 
2.312500 -9.312500 -25.000000 42 46 73 
2.375000 -9.312500 -25.000000 52 54 79 
2.437500 -9.312500 -25.000000 51 53 74 
2.500000 -9.312500 -25.000000 51 52 72 
2.562500 -9.312500 -25.000000 60 62 77 
-1.264129 -1.384083 -3.690888 27 34 63 
-1.238475 -1.365965 -3.642573 29 36 65 
-1.229368 -1.365965 -3.642573 31 38 67 
-1.218874 -1.364412 -3.638431 32 39 68 
-1.204301 -1.358234 -3.621958 31 38 67 
-1.189189 -1.351351 -3.603604 29 36 64 
-1.180180 -1.351351 -3.603604 28 35 63 
-1.171171 -1.351351 -3.603604 28 35 61 
-1.162162 -1.351351 -3.603604 28 35 61 
-3.375000 -9.375000 -25.000000 31 38 64 
-3.312500 -9.375000 -25.000000 31 38 64 
-3.250000 -9.375000 -25.000000 30 37 63 
-3.187500 -9.375000 -25.000000 29 36 62 
-3.125000 -9.375000 -25.000000 31 38 64 
-3.062500 -9.375000 -25.000000 31 38 64 
-3.000000 -9.375000 -25.000000 31 38 64 
-2.937500 -9.375000 -25.000000 31 38 64 
-2.875000 -9.375000 -25.000000 31 38 64 
-2.812500 -9.375000 -25.000000 30 37 63 
-2.750000 -9.375000 -25.000000 30 37 63 
-2.687500 -9.375000 -25.000000 30 37 63 
-2.625000 -9.375000 -25.000000 30 37 65 
-2.562500 -9.375000 -25.000000 31 38 66 
-2.500000 -9.375000 -25.000000 31 38 66 
-2.437500 -9.375000 -25.000000 29 36 64 
-2.375000 -9.375000 -25.000000 26 33 61 
-2.312500 -9.375000 -25.000000 25 32 60 
-2.250000 -9.375000 -25.000000 26 33 61 
-2.187500 -9.375000 -25.000000 27 34 62 
-2.125000 -9.375000 -25.000000 26 33 61 
-2.062500 -9.375000 -25.000000 25 32 60 
0.427807 -4.278075 -11.408199 31 38 67 
0.456328 -4.278075 -11.408199 27 36 65 
0.484848 -4.278075 -11.408199 28 38 65 
0.513369 -4.278075 -11.408199 28 38 63 
1.500000 -9.375000 -25.000000 32 43 63 
1.562500 -9.375000 -25.000000 32 43 63 
1.625000 -9.375000 -25.000000 32 40 61 
1.687500 -9.375000 -25.000000 29 37 58 
1.750000 -9.375000 -25.000000 25 33 56 
1.812500 -9.375000 -25.000000 23 31 54 
1.875000 -9.375000 -25.000000 27 34 60 
1.937500 -9.375000 -25.000000 26 33 59 
2.000000 -9.375000 -25.000000 31 36 65 
2.062500 -9.375000 -25.000000 38 43 72 
2.125000 -9.375000 -25.000000 40 45 75 
2.187500 -9.375000 -25.000000 39 44 74 
2.250000 -9.375000 -25.000000 39 44 74 
2.312500 -9.375000 -25.000000 41 46 75 
2.375000 -9.375000 -25.000000 39 43 68 
2.437500 -9.375000 -25.000000 55 57 80 
2.500000 -9.375000 -25.000000 58 59 80 
2.562500 -9.375000 -25.000000 49 50 68 
-1.247581 -1.375071 -3.642573 28 35 64 
-1.238475 -1.375071 -3.642573 28 35 64 
-1.228669 -1.374289 -3.640501 29 36 65 
-1.217490 -1.371948 -3.634299 29 36 65 
-1.204301 -1.367289 -3.621958 29 36 65 
-1.189189 -1.360360 -3.603604 30 37 65 
-1.180180 -1.360360 -3.603604 30 37 65 
-1.171171 -1.360360 -3.603604 30 37 63 
-1.162162 -1.360360 -3.603604 29 36 62 
-3.375000 -9.437500 -25.000000 31 38 64 
-3.312500 -9.437500 -25.000000 31 38 64 
-3.250000 -9.437500 -25.000000 30 37 63 
-3.187500 -9.437500 -25.000000 29 36 62 
-3.125000 -9.437500 -25.000000 33 40 66 
-3.062500 -9.437500 -25.000000 32 39 65 
-3.000000 -9.437500 -25.000000 32 39 65 
-2.937500 -9.437500 -25.000000 31 38 64 
-2.875000 -9.437500 -25.000000 31 38 64 
-2.812500 -9.437500 -25.000000 30 37 63 
-2.750000 -9.437500 -25.000000 29 36 62 
-2.687500 -9.437500 -25.000000 29 36 62 
-2.625000 -9.437500 -25.000000 28 35 63 
-2.562500 -9.437500 -25.000000 29 36 64 
-2.500000 -9.437500 -25.000000 30 37 65 
-2.437500 -9.437500 -25.000000 28 35 63 
-2.375000 -9.437500 -25.000000 26 33 61 
-2.312500 -9.437500 -25.000000 25 32 60 
-2.250000 -9.437500 -25.000000 26 33 61 
-2.187500 -9.437500 -25.000000 27 34 62 
-2.125000 -9.437500 -25.000000 26 33 61 
-2.062500 -9.437500 -25.000000 25 32 60 
1.500000 -9.437500 -25.000000 30 38 59 
1.562500 -9.437500 -25.000000 31 39 60 
1.625000 -9.437500 -25.000000 30 38 59 
1.687500 -9.437500 -25.000000 27 35 56 
1.750000 -9.437500 -25.000000 25 33 54 
1.812500 -9.437500 -25.000000 23 31 52 
1.875000 -9.437500 -25.000000 29 37 60 
1.937500 -9.437500 -25.000000 28 35 61 
2.000000 -9.437500 -25.000000 30 37 65 
2.062500 -9.437500 -25.000000 36 43 71 
2.125000 -9.437500 -25.000000 38 45 74 
2.187500 -9.437500 -25.000000 37 43 75 
2.250000 -9.437500 -25.000000 38 44 76 
2.312500 -9.437500 -25.000000 42 47 77 
2.375000 -9.437500 -25.000000 40 44 71 
2.437500 -9.437500 -25.000000 47 52 74 
2.500000 -9.437500 -25.000000 59 61 82 
2.562500 -9.437500 -25.000000 57 60 79 
-1.248292 -1.384966 -3.644647 30 37 65 
-1.238475 -1.384178 -3.642573 28 33 63 
-1.228669 -1.383390 -3.640501 26 33 61 
-1.218182 -1.381818 -3.636364 27 32 62 
-1.205666 -1.377904 -3.626062 28 35 63 
-1.189189 -1.369369 -3.603604 32 37 66 
-1.180180 -1.369369 -3.603604 33 40 68 
-1.171171 -1.369369 -3.603604 34 40 66 
-1.162162 -1.369369 -3.603604 30 37 63 
-3.437500 -9.500000 -25.000000 30 37 63 
-3.375000 -9.500000 -25.000000 31 38 64 
-3.312500 -9.500000 -25.000000 31 38 64 
-3.250000 -9.500000 -25.000000 30 37 63 
-3.187500 -9.500000 -25.000000 29 36 62 
-3.125000 -9.500000 -25.000000 34 41 67 
-3.062500 -9.500000 -25.000000 33 40 66 
-3.000000 -9.500000 -25.000000 33 40 66 
-2.937500 -9.500000 -25.000000 32 39 65 
-2.875000 -9.500000 -25.000000 31 38 64 
-2.812500 -9.500000 -25.000000 30 37 63 
-2.750000 -9.500000 -25.000000 29 36 62 
-2.687500 -9.500000 -25.000000 28 35 61 
-2.625000 -9.500000 -25.000000 28 33 62 
-2.562500 -9.500000 -25.000000 29 34 63 
-2.500000 -9.500000 -25.000000 30 35 64 
-2.437500 -9.500000 -25.000000 29 34 63 
-2.375000 -9.500000 -25.000000 27 32 61 
-2.312500 -9.500000 -25.000000 26 31 60 
-2.250000 -9.500000 -25.000000 27 32 61 
-2.187500 -9.500000 -25.000000 28 33 62 
-2.125000 -9.500000 -25.000000 27 32 61 
-2.062500 -9.500000 -25.000000 27 32 61 
-2.000000 -9.500000 -25.000000 26 31 60 
1.500000 -9.500000 -25.000000 32 40 63 
1.562500 -9.500000 -25.000000 33 41 62 
1.625000 -9.500000 -25.000000 33 41 64 
1.687500 -9.500000 -25.000000 31 39 60 
1.750000 -9.500000 -25.000000 30 38 61 
1.812500 -9.500000 -25.000000 29 37 60 
1.875000 -9.500000 -25.000000 31 39 62 
1.937500 -9.500000 -25.000000 29 36 62 
2.000000 -9.500000 -25.000000 30 37 63 
2.062500 -9.500000 -25.000000 35 42 70 
2.125000 -9.500000 -25.000000 38 45 74 
2.187500 -9.500000 -25.000000 37 44 73 
2.250000 -9.500000 -25.000000 38 44 76 
2.312500 -9.500000 -25.000000 42 49 78 
2.375000 -9.500000 -25.000000 45 51 77 
2.437500 -9.500000 -25.000000 35 41 65 
2.500000 -9.500000 -25.000000 48 53 75 
2.562500 -9.500000 -25.000000 60 65 85 
-1.249003 -1.394872 -3.646724 28 34 60 
-1.239180 -1.394077 -3.644647 30 34 63 
-1.228669 -1.392491 -3.640501 28 34 60 
-1.218182 -1.390909 -3.636364 28 32 61 
-1.206349 -1.387755 -3.628118 27 33 59 
-1.189189 -1.378378 -3.603604 30 34 61 
-1.180180 -1.378378 -3.603604 31 37 63 
-1.171171 -1.378378 -3.603604 34 38 65 
-1.162162 -1.378378 -3.603604 29 35 61 
-3.500000 -9.562500 -25.000000 33 43 68 
-3.437500 -9.562500 -25.000000 29 39 64 
-3.375000 -9.562500 -25.000000 24 34 59 
-3.312500 -9.562500 -25.000000 25 35 60 
-3.250000 -9.562500 -25.000000 28 38 63 
-3.187500 -9.562500 -25.000000 28 38 63 
-3.125000 -9.562500 -25.000000 28 38 63 
-3.062500 -9.562500 -25.000000 28 38 63 
-3.000000 -9.562500 -25.000000 29 39 64 
-2.937500 -9.562500 -25.000000 29 39 64 
-2.875000 -9.562500 -25.000000 28 38 63 
-2.812500 -9.562500 -25.000000 26 36 61 
-2.750000 -9.562500 -25.000000 24 34 59 
-2.687500 -9.562500 -25.000000 25 32 58 
-2.625000 -9.562500 -25.000000 26 30 57 
-2.562500 -9.562500 -25.000000 27 31 58 
-2.500000 -9.562500 -25.000000 29 33 60 
-2.437500 -9.562500 -25.000000 29 33 60 
-2.375000 -9.562500 -25.000000 28 32 59 
-2.312500 -9.562500 -25.000000 29 33 60 
-2.250000 -9.562500 -25.000000 31 35 62 
-2.187500 -9.562500 -25.000000 33 37 64 
-2.125000 -9.562500 -25.000000 35 39 66 
-2.062500 -9.562500 -25.000000 29 33 60 
-2.000000 -9.562500 -25.000000 25 29 56 
1.500000 -9.562500 -25.000000 24 31 57 
1.562500 -9.562500 -25.000000 25 33 56 
1.625000 -9.562500 -25.000000 28 35 61 
1.687500 -9.562500 -25.000000 30 38 61 
1.750000 -9.562500 -25.000000 30 37 63 
1.812500 -9.562500 -25.000000 29 36 62 
1.875000 -9.562500 -25.000000 30 37 63 
1.937500 -9.562500 -25.000000 28 35 61 
2.000000 -9.562500 -25.000000 30 37 63 
2.062500 -9.562500 -25.000000 35 42 68 
2.125000 -9.562500 -25.000000 37 44 72 
2.187500 -9.562500 -25.000000 36 43 71 
2.250000 -9.562500 -25.000000 37 44 72 
2.312500 -9.562500 -25.000000 40 47 73 
2.375000 -9.562500 -25.000000 37 47 72 
2.437500 -9.562500 -25.000000 45 56 78 
2.500000 -9.562500 -25.000000 50 58 81 
-1.249003 -1.403989 -3.646724 28 32 59 
-1.239886 -1.403989 -3.646724 29 33 60 
-1.230068 -1.403189 -3.644647 29 33 60 
-1.218874 -1.400796 -3.638431 28 32 59 
-1.207034 -1.397618 -3.630176 28 32 59 
-1.189189 -1.387387 -3.603604 30 34 61 
-1.180180 -1.387387 -3.603604 33 37 64 
-1.171171 -1.387387 -3.603604 37 41 68 
-1.162162 -1.387387 -3.603604 33 37 64 
-3.500000 -9.625000 -25.000000 32 42 67 
-3.437500 -9.625000 -25.000000 28 38 63 
-3.375000 -9.625000 -25.000000 24 34 59 
-3.312500 -9.625000 -25.000000 25 35 60 
-3.250000 -9.625000 -25.000000 27 37 62 
-3.187500 -9.625000 -25.000000 27 37 62 
-3.125000 -9.625000 -25.000000 26 36 61 
-3.062500 -9.625000 -25.000000 27 37 62 
-3.000000 -9.625000 -25.000000 28 38 63 
-2.937500 -9.625000 -25.000000 29 39 64 
-2.875000 -9.625000 -25.000000 29 39 64 
-2.812500 -9.625000 -25.000000 29 39 64 
-2.750000 -9.625000 -25.000000 27 37 62 
-2.687500 -9.625000 -25.000000 28 35 61 
-2.625000 -9.625000 -25.000000 27 31 58 
-2.562500 -9.625000 -25.000000 30 31 59 
-2.500000 -9.625000 -25.000000 31 32 60 
-2.437500 -9.625000 -25.000000 30 31 59 
-2.375000 -9.625000 -25.000000 29 30 58 
-2.312500 -9.625000 -25.000000 31 32 60 
-2.250000 -9.625000 -25.000000 33 34 62 
-2.187500 -9.625000 -25.000000 36 37 65 
-2.125000 -9.625000 -25.000000 34 35 63 
-2.062500 -9.625000 -25.000000 31 32 60 
-2.000000 -9.625000 -25.000000 28 29 57 
-1.937500 -9.625000 -25.000000 30 31 59 
1.500000 -9.625000 -25.000000 29 36 62 
1.562500 -9.625000 -25.000000 29 36 62 
1.625000 -9.625000 -25.000000 30 37 63 
1.687500 -9.625000 -25.000000 29 36 62 
1.750000 -9.625000 -25.000000 26 33 59 
1.812500 -9.625000 -25.000000 22 29 55 
1.875000 -9.625000 -25.000000 26 33 59 
1.937500 -9.625000 -25.000000 25 32 58 
2.000000 -9.625000 -25.000000 28 35 61 
2.062500 -9.625000 -25.000000 34 41 67 
2.125000 -9.625000 -25.000000 37 44 70 
2.187500 -9.625000 -25.000000 35 42 68 
2.250000 -9.625000 -25.000000 36 43 69 
2.312500 -9.625000 -25.000000 38 48 73 
2.375000 -9.625000 -25.000000 37 48 70 
2.437500 -9.625000 -25.000000 36 48 70 
-1.249003 -1.413105 -3.646724 27 31 58 
-1.239886 -1.413105 -3.646724 29 33 60 
-1.230068 -1.412301 -3.644647 28 32 59 
-1.218874 -1.409892 -3.638431 28 32 59 
-1.207718 -1.407491 -3.632236 29 33 60 
-1.195246 -1.403509 -3.621958 31 35 62 
-1.180180 -1.396396 -3.603604 34 38 65 
-1.171171 -1.396396 -3.603604 38 42 69 
-1.162162 -1.396396 -3.603604 35 39 66 
-3.562500 -9.687500 -25.000000 28 38 63 
-3.500000 -9.687500 -25.000000 30 40 65 
-3.437500 -9.687500 -25.000000 26 36 61 
-3.375000 -9.687500 -25.000000 23 33 58 
-3.312500 -9.687500 -25.000000 25 35 60 
-3.250000 -9.687500 -25.000000 27 37 62 
-3.187500 -9.687500 -25.000000 27 37 62 
-3.125000 -9.687500 -25.000000 28 38 63 
-3.062500 -9.687500 -25.000000 29 39 64 
-3.000000 -9.687500 -25.000000 30 40 65 
-2.937500 -9.687500 -25.000000 31 41 66 
-2.875000 -9.687500 -25.000000 30 40 65 
-2.812500 -9.687500 -25.000000 29 39 64 
-2.750000 -9.687500 -25.000000 28 38 63 
-2.687500 -9.687500 -25.000000 28 35 61 
-2.625000 -9.687500 -25.000000 29 33 60 
-2.562500 -9.687500 -25.000000 32 33 61 
-2.500000 -9.687500 -25.000000 31 32 60 
-2.437500 -9.687500 -25.000000 30 31 59 
-2.375000 -9.687500 -25.000000 29 30 58 
-2.312500 -9.687500 -25.000000 30 31 59 
-2.250000 -9.687500 -25.000000 34 35 63 
-2.187500 -9.687500 -25.000000 37 38 66 
-2.125000 -9.687500 -25.000000 31 32 60 
-2.062500 -9.687500 -25.000000 30 31 59 
-2.000000 -9.687500 -25.000000 31 32 60 
-1.937500 -9.687500 -25.000000 32 33 61 
1.500000 -9.687500 -25.000000 32 39 65 
1.562500 -9.687500 -25.000000 33 40 66 
1.625000 -9.687500 -25.000000 33 40 66 
1.687500 -9.687500 -25.000000 30 37 63 
1.750000 -9.687500 -25.000000 24 31 57 
1.812500 -9.687500 -25.000000 20 27 53 
1.875000 -9.687500 -25.000000 27 34 60 
1.937500 -9.687500 -25.000000 25 32 58 
2.000000 -9.687500 -25.000000 28 35 61 
2.062500 -9.687500 -25.000000 34 41 67 
2.125000 -9.687500 -25.000000 36 43 69 
2.187500 -9.687500 -25.000000 34 41 67 
2.250000 -9.687500 -25.000000 34 41 67 
2.312500 -9.687500 -25.000000 35 45 70 
2.375000 -9.687500 -25.000000 34 45 67 
2.437500 -9.687500 -25.000000 32 44 66 
-1.249003 -1.422222 -3.646724 27 31 58 
-1.239180 -1.421412 -3.644647 28 32 59 
-1.230068 -1.421412 -3.644647 28 32 59 
-1.218874 -1.418988 -3.638431 28 32 59 
-1.207718 -1.416572 -3.632236 29 33 60 
-1.195246 -1.412564 -3.621958 32 36 63 
-1.180180 -1.405405 -3.603604 34 38 65 
-1.171171 -1.405405 -3.603604 37 41 68 
-1.162162 -1.405405 -3.603604 34 38 65 
-3.625000 -9.750000 -25.000000 23 33 58 
-3.562500 -9.750000 -25.000000 28 38 63 
-3.500000 -9.750000 -25.000000 29 39 64 
-3.437500 -9.750000 -25.000000 25 35 60 
-3.375000 -9.750000 -25.000000 23 33 58 
-3.312500 -9.750000 -25.000000 25 35 60 
-3.250000 -9.750000 -25.000000 27 37 62 
-3.187500 -9.750000 -25.000000 26 36 61 
-3.125000 -9.750000 -25.000000 34 44 69 
-3.062500 -9.750000 -25.000000 34 44 69 
-3.000000 -9.750000 -25.000000 34 44 69 
-2.937500 -9.750000 -25.000000 33 43 68 
-2.875000 -9.750000 -25.000000 30 40 65 
-2.812500 -9.750000 -25.000000 27 37 62 
-2.750000 -9.750000 -25.000000 25 35 60 
-2.687500 -9.750000 -25.000000 25 32 58 
-2.625000 -9.750000 -25.000000 31 35 62 
-2.562500 -9.750000 -25.000000 33 34 62 
-2.500000 -9.750000 -25.000000 32 33 61 
-2.437500 -9.750000 -25.000000 30 31 59 
-2.375000 -9.750000 -25.000000 29 30 58 
-2.312500 -9.750000 -25.000000 31 32 60 
-2.250000 -9.750000 -25.000000 35 36 64 
-2.187500 -9.750000 -25.000000 38 39 67 
-2.125000 -9.750000 -25.000000 31 32 60 
-2.062500 -9.750000 -25.000000 32 33 61 
-2.000000 -9.750000 -25.000000 34 35 63 
-1.937500 -9.750000 -25.000000 35 36 64 
1.500000 -9.750000 -25.000000 32 39 65 
1.562500 -9.750000 -25.000000 32 39 65 
1.625000 -9.750000 -25.000000 32 39 65 
1.687500 -9.750000 -25.000000 31 38 64 
1.750000 -9.750000 -25.000000 28 35 61 
1.812500 -9.750000 -25.000000 26 33 59 
1.875000 -9.750000 -25.000000 30 37 63 
1.937500 -9.750000 -25.000000 28 35 61 
2.000000 -9.750000 -25.000000 31 38 64 
2.062500 -9.750000 -25.000000 36 43 69 
2.125000 -9.750000 -25.000000 36 43 69 
2.187500 -9.750000 -25.000000 33 40 66 
2.250000 -9.750000 -25.000000 32 39 65 
2.312500 -9.750000 -25.000000 34 41 67 
2.375000 -9.750000 -25.000000 29 40 62 
-1.248292 -1.430524 -3.644647 28 32 59 
-1.239180 -1.430524 -3.644647 29 33 60 
-1.230068 -1.430524 -3.644647 29 33 60 
-1.218182 -1.427273 -3.636364 28 32 59 
-1.207034 -1.424844 -3.630176 29 33 60 
-1.189189 -1.414414 -3.603604 31 35 62 
-1.180180 -1.414414 -3.603604 33 37 64 
-1.171171 -1.414414 -3.603604 36 40 67 
-1.162162 -1.414414 -3.603604 35 39 66 
-1.153153 -1.414414 -3.603604 33 37 64 
-3.625000 -9.812500 -25.000000 27 34 60 
-3.562500 -9.812500 -25.000000 30 38 61 
-3.500000 -9.812500 -25.000000 30 38 61 
-3.437500 -9.812500 -25.000000 26 34 57 
-3.375000 -9.812500 -25.000000 25 33 56 
-3.312500 -9.812500 -25.000000 28 36 59 
-3.250000 -9.812500 -25.000000 30 38 61 
-3.187500 -9.812500 -25.000000 28 36 59 
-3.125000 -9.812500 -25.000000 36 44 67 
-3.062500 -9.812500 -25.000000 36 44 67 
-3.000000 -9.812500 -25.000000 36 44 67 
-2.937500 -9.812500 -25.000000 35 43 66 
-2.875000 -9.812500 -25.000000 33 41 64 
-2.812500 -9.812500 -25.000000 30 38 61 
-2.750000 -9.812500 -25.000000 27 35 58 
-2.687500 -9.812500 -25.000000 25 33 56 
-2.625000 -9.812500 -25.000000 32 36 63 
-2.562500 -9.812500 -25.000000 32 36 63 
-2.500000 -9.812500 -25.000000 31 35 62 
-2.437500 -9.812500 -25.000000 30 34 61 
-2.375000 -9.812500 -25.000000 29 33 60 
-2.312500 -9.812500 -25.000000 30 34 61 
-2.250000 -9.812500 -25.000000 33 37 64 
-2.187500 -9.812500 -25.000000 36 40 67 
-2.125000 -9.812500 -25.000000 30 34 61 
-2.062500 -9.812500 -25.000000 31 35 62 
-2.000000 -9.812500 -25.000000 33 37 64 
-1.937500 -9.812500 -25.000000 34 38 65 
1.500000 -9.812500 -25.000000 32 38 64 
1.562500 -9.812500 -25.000000 31 37 63 
1.625000 -9.812500 -25.000000 30 36 62 
1.687500 -9.812500 -25.000000 29 35 61 
1.750000 -9.812500 -25.000000 30 36 62 
1.812500 -9.812500 -25.000000 30 36 62 
1.875000 -9.812500 -25.000000 29 35 61 
1.937500 -9.812500 -25.000000 28 34 60 
2.000000 -9.812500 -25.000000 32 38 64 
2.062500 -9.812500 -25.000000 38 44 70 
2.125000 -9.812500 -25.000000 40 46 72 
2.187500 -9.812500 -25.000000 37 43 69 
2.250000 -9.812500 -25.000000 36 42 68 
2.312500 -9.812500 -25.000000 37 44 70 
2.375000 -9.812500 -25.000000 28 39 61 
2.437500 -9.812500 -25.000000 38 50 72 
-1.248292 -1.439636 -3.644647 29 33 60 
-1.239180 -1.439636 -3.644647 30 34 61 
-1.229368 -1.438816 -3.642573 29 33 60 
-1.218182 -1.436364 -3.636364 28 32 59 
-1.206349 -1.433107 -3.628118 28 32 59 
