ply
  format ascii 1.0
  element vertex 29824
  property float x
  property float y
  property float z
  property uchar red
  property uchar green
  property uchar blue
  end_header
0.351351 -1.716216 -4.410811 160 163 144 
0.360360 -1.716216 -4.410811 161 164 147 
0.369369 -1.716216 -4.410811 161 164 147 
0.378378 -1.716216 -4.410811 161 164 147 
0.387387 -1.716216 -4.410811 162 165 148 
0.396396 -1.716216 -4.410811 162 165 148 
0.405405 -1.716216 -4.410811 162 165 148 
0.414414 -1.716216 -4.410811 165 164 146 
0.423423 -1.716216 -4.410811 165 164 146 
0.432432 -1.716216 -4.410811 165 164 146 
1.480039 -2.967868 -7.627654 146 146 120 
1.494163 -2.964981 -7.620234 147 147 121 
1.509728 -2.964981 -7.620234 148 148 122 
1.526777 -2.967868 -7.627654 149 149 125 
1.542356 -2.967868 -7.627654 150 150 126 
1.262826 -2.405683 -6.182794 151 151 127 
1.265466 -2.386844 -6.134377 152 151 130 
1.270039 -2.371984 -6.096187 155 154 133 
1.282490 -2.371984 -6.096187 155 154 133 
1.266617 -2.276326 -5.850336 154 153 133 
1.275708 -2.271237 -5.837258 153 152 134 
1.287630 -2.271237 -5.837258 153 152 134 
1.315234 -2.298643 -5.907692 153 152 134 
1.318182 -2.164773 -5.563636 149 151 130 
1.329545 -2.164773 -5.563636 149 151 130 
1.340909 -2.164773 -5.563636 151 153 132 
1.226545 -1.743707 -4.481464 152 151 133 
1.234991 -1.742710 -4.478902 152 151 133 
1.243429 -1.741714 -4.476343 152 151 133 
1.318931 -1.732803 -4.453440 151 150 130 
1.322763 -1.725934 -4.435787 151 150 130 
1.324324 -1.716216 -4.410811 151 150 130 
1.333333 -1.716216 -4.410811 151 150 130 
1.342342 -1.716216 -4.410811 151 150 130 
1.351351 -1.716216 -4.410811 151 150 130 
8.277227 -7.544554 -19.390099 139 133 111 
8.296296 -7.525926 -19.342222 139 133 111 
13.187500 -11.906250 -30.600000 139 133 111 
13.250000 -11.906250 -30.600000 139 133 111 
13.312500 -11.906250 -30.600000 139 133 111 
13.375000 -11.906250 -30.600000 139 133 111 
13.437500 -11.906250 -30.600000 139 133 111 
13.500000 -11.906250 -30.600000 138 132 110 
13.562500 -11.906250 -30.600000 138 132 110 
13.625000 -11.906250 -30.600000 137 131 109 
13.687500 -11.906250 -30.600000 136 130 108 
13.750000 -11.906250 -30.600000 135 129 107 
13.144981 -11.330855 -29.121189 135 129 107 
12.963504 -11.124087 -28.589781 131 126 97 
12.927536 -11.043478 -28.382608 131 126 97 
13.080292 -11.124087 -28.589781 130 125 96 
13.041096 -10.438356 -26.827398 121 111 84 
13.277778 -10.583333 -27.200001 126 116 89 
13.333333 -10.583333 -27.200001 131 121 94 
13.388889 -10.583333 -27.200001 128 118 91 
13.351724 -10.510345 -27.012415 122 112 85 
7.066667 -5.080000 -13.056000 123 108 85 
5.774763 -4.135685 -10.629037 124 109 86 
5.796472 -4.135685 -10.629037 124 109 86 
4.859393 -3.428571 -8.811699 120 107 91 
4.839286 -3.401786 -8.742857 120 107 91 
4.857143 -3.401786 -8.742857 120 107 91 
4.875000 -3.401786 -8.742857 120 107 90 
4.892857 -3.401786 -8.742857 120 107 90 
4.910714 -3.401786 -8.742857 120 107 88 
4.800000 -3.313044 -8.514783 120 107 88 
5.276190 -3.628572 -9.325714 120 108 86 
5.295238 -3.628572 -9.325714 119 107 83 
5.417476 -3.699029 -9.506796 119 107 81 
5.436893 -3.699029 -9.506796 118 106 80 
5.456311 -3.699029 -9.506796 117 106 78 
5.371428 -3.628572 -9.325714 115 104 76 
5.390476 -3.628572 -9.325714 114 103 73 
5.409524 -3.628572 -9.325714 113 102 72 
5.327103 -3.560748 -9.151402 113 102 72 
5.271889 -3.511521 -9.024885 113 102 74 
5.242009 -3.479452 -8.942466 113 101 75 
5.260274 -3.479452 -8.942466 112 100 74 
-2.182332 -2.165371 -5.536113 133 127 101 
-2.171025 -2.165371 -5.536113 133 127 101 
-2.170455 -2.176136 -5.563636 134 128 102 
-2.159091 -2.176136 -5.563636 134 128 104 
-3.401575 -3.446569 -8.811699 134 128 104 
-3.952694 -4.026281 -10.293824 135 129 105 
-5.781250 -5.984375 -15.300000 135 129 107 
-5.750000 -5.984375 -15.300000 136 130 108 
-3.750000 -3.989583 -10.200000 139 132 113 
-3.196429 -3.419643 -8.742857 139 132 113 
-3.178571 -3.419643 -8.742857 136 134 113 
-3.160714 -3.419643 -8.742857 135 133 112 
-3.142857 -3.419643 -8.742857 134 132 111 
-3.679369 -4.026281 -10.293824 133 131 110 
-4.296296 -4.728395 -12.088889 132 130 109 
-3.637319 -4.026281 -10.293824 131 129 108 
-2.890756 -3.218488 -8.228572 130 128 107 
-2.873950 -3.218488 -8.228572 129 127 106 
-2.851153 -3.211740 -8.211321 134 132 111 
-2.822547 -3.198330 -8.177035 135 133 112 
-2.800000 -3.191667 -8.160000 135 133 112 
-2.783333 -3.191667 -8.160000 137 135 114 
-2.075000 -2.393750 -6.120000 138 136 115 
-2.062500 -2.393750 -6.120000 139 137 116 
-2.050000 -2.393750 -6.120000 140 138 117 
-2.037500 -2.393750 -6.120000 140 138 117 
-2.026583 -2.395622 -6.124785 138 132 110 
-2.015650 -2.397496 -6.129578 139 133 111 
-2.003130 -2.397496 -6.129578 140 134 112 
-1.990610 -2.397496 -6.129578 141 134 115 
-1.976544 -2.395622 -6.124785 142 137 117 
-1.962500 -2.393750 -6.120000 143 138 118 
-1.950000 -2.393750 -6.120000 144 139 119 
-2.200976 -2.989268 -7.642537 135 136 118 
-2.185366 -2.989268 -7.642537 135 136 118 
-2.171875 -2.992188 -7.650000 136 137 119 
-2.156250 -2.992188 -7.650000 140 141 123 
-2.138537 -2.989268 -7.642537 140 141 123 
-2.122927 -2.989268 -7.642537 140 141 123 
-2.109375 -2.992188 -7.650000 140 141 123 
-1.054545 -1.740909 -4.450909 135 134 114 
-1.045455 -1.740909 -4.450909 135 134 114 
-1.036953 -1.741899 -4.453440 134 133 112 
-1.142135 -1.935565 -4.948579 134 133 112 
-1.121920 -1.935565 -4.948579 135 134 113 
-1.111111 -1.934343 -4.945455 135 134 113 
-1.101010 -1.934343 -4.945455 136 135 114 
-1.090221 -1.933123 -4.942335 136 135 114 
-1.080126 -1.933123 -4.942335 136 135 114 
-1.514793 -3.626035 -9.270533 142 141 120 
-1.495858 -3.626035 -9.270533 143 142 121 
-1.478673 -3.630332 -9.281517 145 144 123 
-1.459716 -3.630332 -9.281517 146 145 124 
-1.439053 -3.626035 -9.270533 147 146 125 
-1.420118 -3.626035 -9.270533 148 147 126 
-1.404508 -3.634638 -9.292527 145 144 123 
-0.781293 -2.107290 -5.387620 146 145 124 
-0.770289 -2.107290 -5.387620 146 145 124 
-0.764014 -2.120415 -5.421176 147 146 125 
-0.752941 -2.120415 -5.421176 147 146 125 
-0.741868 -2.120415 -5.421176 147 146 125 
-0.731302 -2.121884 -5.424931 146 145 125 
-0.720222 -2.121884 -5.424931 146 145 125 
-0.709141 -2.121884 -5.424931 147 146 126 
-0.696614 -2.117485 -5.413683 148 147 127 
-0.683196 -2.110193 -5.395041 149 148 128 
-0.672176 -2.110193 -5.395041 150 149 129 
-0.948617 -3.027668 -7.740712 151 150 130 
-0.636548 -2.066082 -5.282266 152 151 131 
-0.623656 -2.059140 -5.264516 144 143 123 
-0.612903 -2.059140 -5.264516 145 144 124 
-0.602151 -2.059140 -5.264516 147 146 126 
-0.591398 -2.059140 -5.264516 150 149 129 
-0.580645 -2.059140 -5.264516 152 151 131 
-0.569892 -2.059140 -5.264516 155 154 134 
-1.040000 -3.830000 -9.792000 156 155 135 
-1.018727 -3.825218 -9.779776 158 157 137 
-0.998752 -3.825218 -9.779776 157 159 138 
-1.438532 -5.622018 -14.373578 157 159 138 
-1.573222 -6.410042 -16.388285 157 159 138 
-1.330922 -5.540687 -14.165642 157 159 138 
-1.299639 -5.530686 -14.140073 157 159 138 
-0.141260 -1.803414 -4.610712 161 163 142 
-0.131301 -1.796014 -4.591794 161 163 142 
-0.121851 -1.794962 -4.589104 160 162 141 
-0.112412 -1.793911 -4.586417 158 160 139 
-0.103044 -1.793911 -4.586417 157 159 138 
-0.093842 -1.797067 -4.594487 158 160 139 
-0.084457 -1.797067 -4.594487 158 160 139 
0.333333 -1.725225 -4.410811 159 162 141 
0.342342 -1.725225 -4.410811 161 164 145 
0.351351 -1.725225 -4.410811 161 164 145 
0.360360 -1.725225 -4.410811 161 164 145 
0.369369 -1.725225 -4.410811 161 164 147 
0.378378 -1.725225 -4.410811 162 165 148 
0.387387 -1.725225 -4.410811 162 165 148 
0.396396 -1.725225 -4.410811 162 165 148 
0.405405 -1.725225 -4.410811 163 166 149 
0.414414 -1.725225 -4.410811 166 165 147 
0.423423 -1.725225 -4.410811 166 165 147 
0.432432 -1.725225 -4.410811 166 165 147 
0.441441 -1.725225 -4.410811 165 164 146 
0.450450 -1.725225 -4.410811 165 164 146 
0.459459 -1.725225 -4.410811 165 164 146 
0.468468 -1.725225 -4.410811 164 163 145 
1.480039 -2.983447 -7.627654 149 149 125 
1.494163 -2.980545 -7.620234 150 150 126 
1.509728 -2.980545 -7.620234 151 151 127 
1.526777 -2.983447 -7.627654 152 152 128 
1.542356 -2.983447 -7.627654 153 153 129 
1.262826 -2.418311 -6.182794 154 153 132 
1.265466 -2.399374 -6.134377 155 154 133 
1.270039 -2.384436 -6.096187 155 154 133 
1.282490 -2.384436 -6.096187 155 154 134 
1.266617 -2.288275 -5.850336 154 153 133 
1.275708 -2.283159 -5.837258 153 152 132 
1.287630 -2.283159 -5.837258 153 152 132 
1.318182 -2.176136 -5.563636 149 151 130 
1.329545 -2.176136 -5.563636 149 151 130 
1.340909 -2.176136 -5.563636 151 153 132 
1.225843 -1.751858 -4.478902 152 151 133 
1.234286 -1.750857 -4.476343 152 151 133 
1.242718 -1.749857 -4.473786 152 151 133 
1.251856 -1.749857 -4.473786 152 151 133 
1.261714 -1.750857 -4.476343 152 151 133 
1.318931 -1.741899 -4.453440 152 151 131 
1.322763 -1.734994 -4.435787 152 151 131 
1.324324 -1.725225 -4.410811 152 151 131 
1.333333 -1.725225 -4.410811 152 151 131 
1.342342 -1.725225 -4.410811 152 151 131 
1.351351 -1.725225 -4.410811 152 151 131 
8.379052 -7.640898 -19.535162 139 132 113 
13.187500 -11.968750 -30.600000 139 132 113 
13.250000 -11.968750 -30.600000 139 132 113 
13.312500 -11.968750 -30.600000 139 132 113 
13.375000 -11.968750 -30.600000 140 133 114 
13.437500 -11.968750 -30.600000 139 132 113 
13.500000 -11.968750 -30.600000 139 132 113 
13.562500 -11.968750 -30.600000 138 131 112 
13.625000 -11.968750 -30.600000 137 130 111 
13.687500 -11.968750 -30.600000 136 129 110 
13.750000 -11.968750 -30.600000 136 129 110 
13.144981 -11.390334 -29.121189 136 129 110 
12.869565 -11.101449 -28.382608 130 125 96 
12.927536 -11.101449 -28.382608 130 125 96 
4.841395 -3.446569 -8.811699 125 110 87 
4.821429 -3.419643 -8.742857 120 107 90 
4.839286 -3.419643 -8.742857 120 107 90 
4.857143 -3.419643 -8.742857 120 107 90 
4.875000 -3.419643 -8.742857 120 107 90 
4.892857 -3.419643 -8.742857 120 107 88 
4.910714 -3.419643 -8.742857 120 107 88 
4.800000 -3.330435 -8.514783 120 108 86 
4.817391 -3.330435 -8.514783 120 108 86 
5.295238 -3.647619 -9.325714 119 107 83 
5.417476 -3.718446 -9.506796 119 107 83 
5.436893 -3.718446 -9.506796 118 106 80 
5.456311 -3.718446 -9.506796 117 105 79 
5.475728 -3.718446 -9.506796 115 104 76 
5.390476 -3.647619 -9.325714 114 103 75 
5.409524 -3.647619 -9.325714 113 102 74 
5.327103 -3.579439 -9.151402 113 102 74 
5.271889 -3.529954 -9.024885 112 101 73 
5.242009 -3.497717 -8.942466 112 100 74 
5.260274 -3.497717 -8.942466 112 100 74 
-2.182332 -2.176678 -5.536113 132 126 100 
-2.171025 -2.176678 -5.536113 133 127 101 
-2.170455 -2.187500 -5.563636 133 127 101 
-2.159091 -2.187500 -5.563636 133 127 103 
-3.401575 -3.464567 -8.811699 134 128 104 
-3.952694 -4.047306 -10.293824 134 128 104 
-5.781250 -6.015625 -15.300000 134 128 106 
-5.750000 -6.015625 -15.300000 135 129 107 
-5.718750 -6.015625 -15.300000 136 129 110 
-5.687500 -6.015625 -15.300000 138 131 112 
-3.770833 -4.010417 -10.200000 139 132 113 
-3.750000 -4.010417 -10.200000 140 133 114 
-3.196429 -3.437500 -8.742857 141 134 115 
-3.178571 -3.437500 -8.742857 135 132 113 
-3.160714 -3.437500 -8.742857 135 132 113 
-3.142857 -3.437500 -8.742857 134 131 112 
-3.679369 -4.047306 -10.293824 133 130 111 
-4.296296 -4.753087 -12.088889 132 129 110 
-3.637319 -4.047306 -10.293824 130 127 108 
-2.890756 -3.235294 -8.228572 129 126 107 
-2.855950 -3.215031 -8.177035 129 126 107 
-2.836288 -3.211679 -8.168509 135 132 113 
-2.822547 -3.215031 -8.177035 135 132 113 
-2.800000 -3.208333 -8.160000 136 133 114 
-2.783333 -3.208333 -8.160000 137 134 115 
-2.075000 -2.406250 -6.120000 138 135 116 
-2.062500 -2.406250 -6.120000 140 137 118 
-2.050000 -2.406250 -6.120000 140 137 118 
-2.037500 -2.406250 -6.120000 141 138 119 
-2.025000 -2.406250 -6.120000 137 131 109 
-2.015650 -2.410016 -6.129578 138 132 110 
-2.003130 -2.410016 -6.129578 139 133 111 
-1.990610 -2.410016 -6.129578 141 134 115 
-1.978091 -2.410016 -6.129578 142 137 117 
-1.964034 -2.408131 -6.124785 144 139 119 
-2.216585 -3.004878 -7.642537 135 137 116 
-2.200976 -3.004878 -7.642537 135 137 116 
-2.185366 -3.004878 -7.642537 136 138 117 
-2.169756 -3.004878 -7.642537 136 138 117 
-2.154146 -3.004878 -7.642537 140 142 121 
-2.138537 -3.004878 -7.642537 140 142 121 
-2.122927 -3.004878 -7.642537 140 142 121 
-1.054545 -1.750000 -4.450909 138 137 116 
-1.045455 -1.750000 -4.450909 137 136 115 
-1.036953 -1.750995 -4.453440 134 133 112 
-1.142135 -1.945673 -4.948579 134 133 112 
-1.132743 -1.946903 -4.951707 134 133 112 
-1.121920 -1.945673 -4.948579 135 134 113 
-1.111111 -1.944444 -4.945455 135 134 113 
-1.101010 -1.944444 -4.945455 136 135 114 
-1.090909 -1.944444 -4.945455 136 135 114 
-1.080808 -1.944444 -4.945455 136 135 114 
-1.533728 -3.644970 -9.270533 141 140 119 
-1.511216 -3.636364 -9.248642 142 141 120 
-1.494090 -3.640662 -9.259575 144 143 122 
-1.475177 -3.640662 -9.259575 146 145 124 
-1.456265 -3.640662 -9.259575 147 146 125 
-1.437352 -3.640662 -9.259575 149 148 127 
-1.418440 -3.640662 -9.259575 149 148 127 
-1.401183 -3.644970 -9.270533 146 145 124 
-0.775087 -2.131488 -5.421176 147 146 125 
-0.764014 -2.131488 -5.421176 147 146 125 
-0.752941 -2.131488 -5.421176 148 147 126 
-0.741868 -2.131488 -5.421176 148 147 126 
-0.731302 -2.132964 -5.424931 147 146 126 
-0.720222 -2.132964 -5.424931 147 146 126 
-0.709141 -2.132964 -5.424931 147 146 126 
-0.696614 -2.128542 -5.413683 147 146 126 
-0.683196 -2.121212 -5.395041 147 146 126 
-0.672176 -2.121212 -5.395041 146 145 125 
-0.893855 -2.867784 -7.293855 146 145 125 
-0.878957 -2.867784 -7.293855 146 145 125 
-0.859259 -2.851852 -7.253334 146 145 125 
-0.612903 -2.069892 -5.264516 147 146 126 
-0.602555 -2.071285 -5.268056 149 148 128 
-0.591398 -2.069892 -5.264516 152 151 131 
-0.580645 -2.069892 -5.264516 155 154 134 
-0.569892 -2.069892 -5.264516 158 157 137 
-1.038702 -3.845194 -9.779776 160 159 139 
-1.018727 -3.845194 -9.779776 161 160 140 
-0.998752 -3.845194 -9.779776 158 160 139 
-1.430657 -5.620438 -14.294890 158 160 139 
-1.409174 -5.651376 -14.373578 158 160 139 
-1.367273 -5.600000 -14.242909 158 160 139 
-1.328520 -5.559567 -14.140073 158 160 139 
-1.290323 -5.519713 -14.038710 158 160 139 
-1.261649 -5.519713 -14.038710 158 160 139 
-0.141426 -1.814968 -4.616146 161 163 142 
-0.131765 -1.811765 -4.608000 162 164 143 
-0.121923 -1.805393 -4.591794 160 162 141 
-0.112544 -1.805393 -4.591794 159 161 140 
-0.103226 -1.806452 -4.594487 157 159 138 
-0.093842 -1.806452 -4.594487 159 161 140 
-0.084309 -1.803279 -4.586417 159 161 140 
-0.074898 -1.802224 -4.583733 159 161 140 
0.333333 -1.734234 -4.410811 160 162 141 
0.342342 -1.734234 -4.410811 162 164 143 
0.351351 -1.734234 -4.410811 162 163 145 
0.360360 -1.734234 -4.410811 162 163 145 
0.369369 -1.734234 -4.410811 163 164 146 
0.378378 -1.734234 -4.410811 163 164 148 
0.387387 -1.734234 -4.410811 163 164 148 
0.396396 -1.734234 -4.410811 164 165 149 
0.405405 -1.734234 -4.410811 164 165 149 
0.414414 -1.734234 -4.410811 167 166 146 
0.423423 -1.734234 -4.410811 167 166 146 
0.432432 -1.734234 -4.410811 166 165 145 
0.441441 -1.734234 -4.410811 166 165 145 
0.450450 -1.734234 -4.410811 166 165 145 
0.459459 -1.734234 -4.410811 165 164 144 
0.468468 -1.734234 -4.410811 165 164 144 
0.477477 -1.734234 -4.410811 165 164 144 
0.486486 -1.734234 -4.410811 164 163 143 
0.495495 -1.734234 -4.410811 164 163 143 
0.504505 -1.734234 -4.410811 164 163 143 
1.494163 -2.996109 -7.620234 153 152 131 
1.509728 -2.996109 -7.620234 154 153 132 
1.526777 -2.999026 -7.627654 155 154 133 
1.542356 -2.999026 -7.627654 157 156 135 
1.263823 -2.432859 -6.187678 158 157 136 
1.265466 -2.411903 -6.134377 158 157 136 
1.270039 -2.396887 -6.096187 155 154 133 
1.282490 -2.396887 -6.096187 155 154 134 
1.265672 -2.298507 -5.845970 154 153 133 
1.274758 -2.293373 -5.832911 153 152 132 
1.286672 -2.293373 -5.832911 153 152 132 
1.329545 -2.187500 -5.563636 149 151 130 
1.225843 -1.761006 -4.478902 152 151 133 
1.234286 -1.760000 -4.476343 152 151 133 
1.242718 -1.758995 -4.473786 152 151 133 
1.249003 -1.754986 -4.463590 152 151 133 
1.258120 -1.754986 -4.463590 152 151 133 
1.270857 -1.760000 -4.476343 152 151 133 
1.280000 -1.760000 -4.476343 152 151 133 
1.322763 -1.744054 -4.435787 153 152 132 
1.324324 -1.734234 -4.410811 153 152 132 
1.333333 -1.734234 -4.410811 153 152 132 
1.342342 -1.734234 -4.410811 153 152 132 
1.351351 -1.734234 -4.410811 152 151 131 
13.250000 -12.031250 -30.600000 139 132 114 
13.312500 -12.031250 -30.600000 139 132 114 
13.375000 -12.031250 -30.600000 140 133 115 
13.437500 -12.031250 -30.600000 140 133 115 
13.500000 -12.031250 -30.600000 139 132 114 
13.562500 -12.031250 -30.600000 138 131 113 
13.625000 -12.031250 -30.600000 137 130 112 
13.687500 -12.031250 -30.600000 137 130 112 
13.750000 -12.031250 -30.600000 136 129 111 
13.194030 -11.492537 -29.229851 136 129 111 
12.776978 -11.079137 -28.178417 132 127 98 
12.834533 -11.079137 -28.178417 132 127 98 
4.841395 -3.464567 -8.811699 125 111 85 
4.821429 -3.437500 -8.742857 120 107 90 
4.839286 -3.437500 -8.742857 120 107 90 
4.857143 -3.437500 -8.742857 120 107 90 
4.875000 -3.437500 -8.742857 120 107 88 
4.892857 -3.437500 -8.742857 120 107 88 
4.910714 -3.437500 -8.742857 120 107 88 
4.800000 -3.347826 -8.514783 120 108 86 
4.817391 -3.347826 -8.514783 120 108 86 
5.295238 -3.666667 -9.325714 119 107 83 
5.417476 -3.737864 -9.506796 119 107 83 
5.436893 -3.737864 -9.506796 118 106 80 
5.456311 -3.737864 -9.506796 117 105 79 
5.475728 -3.737864 -9.506796 115 103 77 
5.495146 -3.737864 -9.506796 114 103 75 
5.409524 -3.666667 -9.325714 113 102 74 
5.428571 -3.666667 -9.325714 113 102 74 
5.345794 -3.598131 -9.151402 112 101 73 
5.284235 -3.544304 -9.014500 112 100 74 
-2.182332 -2.187986 -5.536113 132 126 100 
-2.171025 -2.187986 -5.536113 132 126 100 
-2.170455 -2.198864 -5.563636 133 127 101 
-2.159091 -2.198864 -5.563636 133 127 103 
-3.401575 -3.482565 -8.811699 133 127 103 
-3.916667 -4.031250 -10.200000 134 128 104 
-5.781250 -6.046875 -15.300000 133 127 105 
-5.750000 -6.046875 -15.300000 135 129 107 
-5.718750 -6.046875 -15.300000 136 129 110 
-3.791667 -4.031250 -10.200000 138 131 112 
-3.770833 -4.031250 -10.200000 139 132 113 
-3.750000 -4.031250 -10.200000 141 134 115 
-3.196429 -3.455357 -8.742857 141 134 115 
-3.178571 -3.455357 -8.742857 135 132 115 
-3.160714 -3.455357 -8.742857 135 132 115 
-3.142857 -3.455357 -8.742857 134 131 114 
-3.645833 -4.031250 -10.200000 133 130 113 
-3.658344 -4.068331 -10.293824 131 128 111 
-3.604167 -4.031250 -10.200000 130 127 110 
-3.546392 -3.989691 -10.094846 129 126 109 
-1.561644 -1.767123 -4.471233 129 126 109 
-1.552511 -1.767123 -4.471233 135 132 115 
-2.087500 -2.418750 -6.120000 137 134 117 
-2.075000 -2.418750 -6.120000 139 136 119 
-2.062500 -2.418750 -6.120000 140 137 120 
-2.050000 -2.418750 -6.120000 141 138 121 
-2.037500 -2.418750 -6.120000 141 138 121 
-2.025000 -2.418750 -6.120000 137 131 109 
-2.015650 -2.422535 -6.129578 137 131 109 
-2.003130 -2.422535 -6.129578 139 133 111 
-1.990610 -2.422535 -6.129578 141 134 115 
-1.978091 -2.422535 -6.129578 142 137 117 
-1.965571 -2.422535 -6.129578 144 139 119 
-2.216585 -3.020488 -7.642537 135 137 116 
-2.200976 -3.020488 -7.642537 136 138 117 
-2.185366 -3.020488 -7.642537 136 138 117 
-2.169756 -3.020488 -7.642537 136 138 117 
-2.154146 -3.020488 -7.642537 140 142 121 
-2.140625 -3.023438 -7.650000 140 142 121 
-1.046049 -1.760091 -4.453440 139 138 117 
-1.152971 -1.957016 -4.951707 134 133 112 
-1.143580 -1.958254 -4.954839 134 133 112 
-1.133460 -1.958254 -4.954839 134 133 112 
-1.123340 -1.958254 -4.954839 135 134 113 
-1.112516 -1.957016 -4.951707 135 134 113 
-1.101010 -1.954545 -4.945455 136 135 114 
-1.090909 -1.954545 -4.945455 136 135 114 
-1.107527 -2.080645 -5.264516 143 142 121 
-1.669402 -3.629543 -9.183587 146 145 124 
-1.554502 -3.668247 -9.281517 140 139 118 
-1.530106 -3.655254 -9.248642 141 140 119 
-1.511216 -3.655254 -9.248642 142 141 120 
-1.492326 -3.655254 -9.248642 144 143 122 
-1.475177 -3.659575 -9.259575 146 145 124 
-1.456265 -3.659575 -9.259575 148 147 126 
-1.437352 -3.659575 -9.259575 150 149 128 
-1.420118 -3.663905 -9.270533 150 149 128 
-1.325444 -3.663905 -9.270533 147 146 125 
-0.837633 -2.349014 -5.943551 148 147 126 
-0.752941 -2.142560 -5.421176 148 147 126 
-0.741868 -2.142560 -5.421176 148 147 126 
-0.730796 -2.142560 -5.421176 148 147 127 
-0.720222 -2.144044 -5.424931 148 147 127 
-0.709141 -2.144044 -5.424931 147 146 126 
-0.697095 -2.141079 -5.417428 146 145 125 
-0.683666 -2.133701 -5.398759 144 143 123 
-0.672640 -2.133701 -5.398759 143 142 122 
-0.888889 -2.866667 -7.253334 143 142 122 
-0.874884 -2.869323 -7.260056 142 141 121 
-0.859259 -2.866667 -7.253334 148 147 127 
-0.842884 -2.861368 -7.239926 149 148 128 
-0.603367 -2.084848 -5.275152 152 151 131 
-0.591796 -2.082044 -5.268056 155 154 134 
-0.580645 -2.080645 -5.264516 158 157 137 
-0.569892 -2.080645 -5.264516 161 160 140 
-1.038702 -3.865169 -9.779776 164 163 143 
-1.018727 -3.865169 -9.779776 165 164 144 
-0.998752 -3.865169 -9.779776 158 160 139 
-1.430657 -5.649635 -14.294890 158 160 139 
-1.401460 -5.649635 -14.294890 158 160 139 
-1.367273 -5.629091 -14.242909 158 160 139 
-1.328520 -5.588448 -14.140073 158 160 139 
-1.290323 -5.548387 -14.038710 158 160 139 
-1.261649 -5.548387 -14.038710 158 160 139 
-0.141677 -1.827627 -4.624321 161 163 142 
-0.131998 -1.824396 -4.616146 162 164 143 
-0.122425 -1.822248 -4.610712 161 163 142 
-0.113141 -1.824396 -4.616146 159 161 140 
-0.103712 -1.824396 -4.616146 158 160 139 
-0.094284 -1.824396 -4.616146 159 161 140 
-0.084656 -1.820106 -4.605291 159 161 140 
0.333333 -1.743243 -4.410811 160 162 141 
0.342342 -1.743243 -4.410811 162 164 143 
0.351351 -1.743243 -4.410811 162 164 143 
0.360360 -1.743243 -4.410811 162 163 145 
0.369369 -1.743243 -4.410811 163 164 146 
0.378378 -1.743243 -4.410811 163 164 146 
0.387387 -1.743243 -4.410811 164 165 147 
0.396396 -1.743243 -4.410811 164 165 149 
0.405405 -1.743243 -4.410811 164 165 149 
0.414414 -1.743243 -4.410811 167 166 146 
0.423423 -1.743243 -4.410811 167 166 146 
0.432432 -1.743243 -4.410811 167 166 146 
0.441441 -1.743243 -4.410811 166 165 145 
0.450450 -1.743243 -4.410811 166 165 145 
0.459459 -1.743243 -4.410811 166 165 145 
0.468468 -1.743243 -4.410811 165 164 144 
0.477477 -1.743243 -4.410811 165 164 144 
0.486486 -1.743243 -4.410811 164 163 143 
0.495495 -1.743243 -4.410811 164 163 143 
0.504505 -1.743243 -4.410811 164 163 143 
0.513514 -1.743243 -4.410811 163 162 142 
0.522523 -1.743243 -4.410811 163 162 142 
1.494163 -3.011673 -7.620234 155 154 133 
1.509728 -3.011673 -7.620234 156 155 134 
1.526777 -3.014606 -7.627654 158 157 137 
1.542356 -3.014606 -7.627654 159 158 138 
1.263823 -2.445498 -6.187678 160 159 139 
1.265466 -2.424432 -6.134377 160 159 139 
1.269051 -2.407465 -6.091446 155 154 134 
1.281493 -2.407465 -6.091446 155 154 134 
1.265672 -2.310448 -5.845970 154 153 133 
1.274758 -2.305287 -5.832911 153 152 132 
1.286672 -2.305287 -5.832911 153 152 132 
1.313253 -2.331325 -5.898795 153 152 132 
1.225843 -1.770154 -4.478902 152 151 133 
1.234286 -1.769143 -4.476343 152 151 133 
1.242718 -1.768132 -4.473786 152 151 133 
1.248292 -1.763098 -4.461048 152 151 133 
1.257403 -1.763098 -4.461048 152 151 133 
1.270131 -1.768132 -4.473786 152 151 133 
1.279269 -1.768132 -4.473786 152 151 133 
1.289143 -1.769143 -4.476343 152 151 133 
1.322763 -1.753114 -4.435787 153 152 132 
1.324324 -1.743243 -4.410811 153 152 132 
1.333333 -1.743243 -4.410811 153 152 132 
1.342342 -1.743243 -4.410811 153 152 132 
1.351351 -1.743243 -4.410811 152 151 131 
13.187500 -12.093750 -30.600000 139 132 114 
13.250000 -12.093750 -30.600000 139 132 114 
13.312500 -12.093750 -30.600000 139 132 114 
13.375000 -12.093750 -30.600000 140 133 115 
13.437500 -12.093750 -30.600000 140 133 115 
13.500000 -12.093750 -30.600000 139 132 114 
13.562500 -12.093750 -30.600000 138 131 113 
13.625000 -12.093750 -30.600000 138 131 113 
13.687500 -12.093750 -30.600000 137 130 112 
13.750000 -12.093750 -30.600000 136 129 111 
13.243445 -11.595506 -29.339327 136 129 111 
12.823105 -11.176895 -28.280146 136 130 104 
12.880866 -11.176895 -28.280146 135 129 103 
4.823397 -3.482565 -8.811699 125 111 85 
4.841395 -3.482565 -8.811699 125 111 85 
4.821429 -3.455357 -8.742857 120 107 88 
4.839286 -3.455357 -8.742857 120 107 88 
4.857143 -3.455357 -8.742857 120 107 88 
4.875000 -3.455357 -8.742857 120 107 88 
4.892857 -3.455357 -8.742857 120 107 88 
4.910714 -3.455357 -8.742857 120 108 86 
4.928571 -3.455357 -8.742857 120 108 86 
4.946429 -3.455357 -8.742857 120 108 86 
5.504951 -3.831683 -9.695049 119 107 83 
5.524753 -3.831683 -9.695049 119 107 83 
5.544554 -3.831683 -9.695049 118 106 82 
5.456311 -3.757282 -9.506796 117 105 79 
5.475728 -3.757282 -9.506796 115 103 77 
5.495146 -3.757282 -9.506796 114 102 76 
5.409524 -3.685714 -9.325714 113 101 75 
5.428571 -3.685714 -9.325714 113 101 75 
5.345794 -3.616822 -9.151402 112 101 73 
5.364486 -3.616822 -9.151402 112 100 74 
-2.182332 -2.199293 -5.536113 131 127 100 
-2.171025 -2.199293 -5.536113 132 128 101 
-2.170455 -2.210227 -5.563636 133 129 102 
-2.159091 -2.210227 -5.563636 134 130 105 
-3.401575 -3.500562 -8.811699 136 132 107 
-3.916667 -4.052083 -10.200000 137 133 108 
-5.781250 -6.078125 -15.300000 134 129 107 
-5.750000 -6.078125 -15.300000 135 130 108 
-5.718750 -6.078125 -15.300000 135 130 110 
-3.791667 -4.052083 -10.200000 136 131 111 
-3.770833 -4.052083 -10.200000 137 132 112 
-3.750000 -4.052083 -10.200000 138 133 113 
-3.196429 -3.473214 -8.742857 138 133 113 
-3.178571 -3.473214 -8.742857 134 131 114 
-3.160714 -3.473214 -8.742857 134 131 114 
-3.142857 -3.473214 -8.742857 133 130 113 
-3.645833 -4.052083 -10.200000 133 130 113 
-3.658344 -4.089356 -10.293824 133 130 113 
-3.604167 -4.052083 -10.200000 132 129 112 
-3.546392 -4.010309 -10.094846 132 129 112 
-1.561644 -1.776256 -4.471233 132 129 112 
-1.552511 -1.776256 -4.471233 131 128 111 
-1.543379 -1.776256 -4.471233 131 128 111 
-2.087500 -2.431250 -6.120000 135 132 115 
-2.075000 -2.431250 -6.120000 137 134 117 
-2.062500 -2.431250 -6.120000 139 136 119 
-2.050000 -2.431250 -6.120000 141 138 121 
-2.037500 -2.431250 -6.120000 141 138 121 
-2.026583 -2.433151 -6.124785 139 133 111 
-2.017228 -2.436962 -6.134377 139 133 111 
-2.004699 -2.436962 -6.134377 139 133 111 
-1.992169 -2.436962 -6.134377 140 133 114 
-1.979640 -2.436962 -6.134377 139 134 114 
-1.967110 -2.436962 -6.134377 139 134 114 
-2.216585 -3.036098 -7.642537 134 136 115 
-2.200976 -3.036098 -7.642537 134 136 115 
-2.185366 -3.036098 -7.642537 134 136 115 
-2.169756 -3.036098 -7.642537 134 136 115 
-1.281250 -2.026042 -5.100000 144 143 122 
-1.270833 -2.026042 -5.100000 145 144 123 
-1.161783 -1.982166 -4.989554 137 136 115 
-1.143580 -1.968374 -4.954839 136 135 114 
-1.133460 -1.968374 -4.954839 135 134 113 
-1.123340 -1.968374 -4.954839 135 134 113 
-1.113219 -1.968374 -4.954839 136 135 114 
-1.101010 -1.964646 -4.945455 139 138 117 
-1.090909 -1.964646 -4.945455 142 141 120 
-1.116778 -2.088591 -5.257450 137 136 115 
-1.106783 -2.089993 -5.260981 138 137 116 
-1.096774 -2.091398 -5.264516 138 137 116 
-1.708381 -3.572905 -8.993800 146 145 124 
-1.706917 -3.648300 -9.183587 147 146 125 
-1.684211 -3.639766 -9.162106 147 146 125 
-1.663551 -3.635514 -9.151402 147 146 125 
-1.644860 -3.635514 -9.151402 146 145 124 
-1.580952 -3.704762 -9.325714 143 142 121 
-1.554502 -3.687204 -9.281517 141 140 119 
-1.530106 -3.674144 -9.248642 141 140 119 
-1.511216 -3.674144 -9.248642 142 141 120 
-1.492326 -3.674144 -9.248642 143 142 121 
-1.473436 -3.674144 -9.248642 145 144 123 
-1.456265 -3.678487 -9.259575 146 145 124 
-1.437352 -3.678487 -9.259575 147 146 125 
-1.420118 -3.682840 -9.270533 147 146 125 
-0.838906 -2.364742 -5.952584 146 145 124 
-0.826120 -2.362946 -5.948064 146 145 124 
-0.741868 -2.153633 -5.421176 146 145 124 
-0.730796 -2.153633 -5.421176 146 145 125 
-0.719723 -2.153633 -5.421176 146 145 125 
-0.708651 -2.153633 -5.421176 145 144 124 
-0.697095 -2.152144 -5.417428 145 144 124 
-0.684138 -2.146207 -5.402483 145 144 124 
-0.673103 -2.146207 -5.402483 145 144 124 
-0.887246 -2.876155 -7.239926 145 144 124 
-0.874074 -2.881481 -7.253334 145 144 124 
-0.859259 -2.881481 -7.253334 140 139 119 
-0.845227 -2.884152 -7.260056 142 141 121 
-0.828096 -2.876155 -7.239926 146 145 125 
-0.811060 -2.868203 -7.219908 150 149 129 
-0.581818 -2.095623 -5.275152 155 154 134 
-0.780129 -2.862926 -7.206624 160 159 139 
-1.037406 -3.880299 -9.767581 164 163 143 
-1.017456 -3.880299 -9.767581 166 165 145 
-0.997506 -3.880299 -9.767581 163 165 144 
-1.428051 -5.668488 -14.268852 163 165 144 
-1.398907 -5.668488 -14.268852 162 164 143 
-1.364791 -5.647913 -14.217060 161 163 142 
-1.328520 -5.617329 -14.140073 161 163 142 
-1.290323 -5.577061 -14.038710 160 162 141 
-1.261649 -5.577061 -14.038710 159 161 140 
-0.141844 -1.839244 -4.629787 160 162 141 
-0.132153 -1.835988 -4.621593 160 162 141 
-0.122714 -1.835988 -4.621593 160 162 141 
-0.113274 -1.835988 -4.621593 160 162 141 
-0.103835 -1.835988 -4.621593 160 162 141 
-0.094619 -1.840331 -4.632525 159 161 140 
0.342342 -1.752252 -4.410811 163 165 144 
0.351351 -1.752252 -4.410811 163 165 144 
0.360360 -1.752252 -4.410811 163 165 144 
0.369369 -1.752252 -4.410811 162 163 145 
0.378378 -1.752252 -4.410811 162 163 145 
0.387387 -1.752252 -4.410811 161 162 144 
0.396396 -1.752252 -4.410811 161 162 144 
0.405405 -1.752252 -4.410811 161 162 144 
0.414414 -1.752252 -4.410811 166 165 145 
0.423423 -1.752252 -4.410811 166 165 145 
0.432432 -1.752252 -4.410811 165 164 144 
0.441441 -1.752252 -4.410811 164 163 143 
0.459459 -1.752252 -4.410811 163 162 142 
0.468468 -1.752252 -4.410811 162 161 141 
0.477477 -1.752252 -4.410811 162 161 141 
0.486486 -1.752252 -4.410811 161 160 140 
0.495495 -1.752252 -4.410811 161 160 140 
0.504505 -1.752252 -4.410811 160 159 139 
0.513514 -1.752252 -4.410811 159 158 138 
0.522523 -1.752252 -4.410811 159 158 138 
1.494163 -3.027237 -7.620234 159 158 138 
1.509728 -3.027237 -7.620234 158 157 137 
1.526777 -3.030185 -7.627654 158 157 137 
1.542356 -3.030185 -7.627654 157 156 136 
1.262826 -2.456196 -6.182794 157 156 136 
1.264476 -2.435055 -6.129578 157 156 136 
1.269051 -2.419907 -6.091446 155 154 134 
1.281493 -2.419907 -6.091446 155 154 134 
1.265672 -2.322388 -5.845970 156 155 135 
1.274758 -2.317200 -5.832911 157 156 136 
1.286672 -2.317200 -5.832911 157 156 136 
1.313253 -2.343374 -5.898795 157 156 136 
1.225143 -1.778286 -4.476343 154 153 135 
1.234286 -1.778286 -4.476343 154 153 135 
1.242718 -1.777270 -4.473786 154 153 135 
1.248292 -1.772210 -4.461048 153 152 134 
1.257403 -1.772210 -4.461048 153 152 134 
1.267959 -1.774230 -4.466135 152 151 133 
1.279269 -1.777270 -4.473786 152 151 133 
1.324324 -1.752252 -4.410811 153 152 132 
1.333333 -1.752252 -4.410811 153 152 132 
1.342342 -1.752252 -4.410811 153 152 132 
1.351351 -1.752252 -4.410811 151 150 130 
13.187500 -12.156250 -30.600000 141 134 116 
13.250000 -12.156250 -30.600000 141 134 116 
13.312500 -12.156250 -30.600000 141 134 116 
13.375000 -12.156250 -30.600000 139 132 114 
13.437500 -12.156250 -30.600000 139 132 114 
13.500000 -12.156250 -30.600000 138 131 113 
13.562500 -12.156250 -30.600000 137 130 112 
13.625000 -12.156250 -30.600000 137 130 112 
13.687500 -12.156250 -30.600000 136 129 111 
13.750000 -12.156250 -30.600000 135 128 110 
13.243445 -11.655431 -29.339327 135 128 110 
13.303370 -11.655431 -29.339327 135 129 103 
4.823397 -3.500562 -8.811699 115 101 74 
4.803571 -3.473214 -8.742857 115 101 74 
4.821429 -3.473214 -8.742857 117 104 85 
4.839286 -3.473214 -8.742857 117 104 85 
4.857143 -3.473214 -8.742857 118 105 86 
4.875000 -3.473214 -8.742857 119 107 85 
4.892857 -3.473214 -8.742857 119 107 85 
4.910714 -3.473214 -8.742857 120 108 86 
4.928571 -3.473214 -8.742857 121 109 87 
4.946429 -3.473214 -8.742857 121 109 87 
5.504951 -3.851485 -9.695049 118 106 82 
5.524753 -3.851485 -9.695049 118 106 82 
5.544554 -3.851485 -9.695049 118 106 82 
5.564356 -3.851485 -9.695049 117 105 81 
5.475728 -3.776699 -9.506796 117 105 81 
5.495146 -3.776699 -9.506796 116 104 78 
5.514563 -3.776699 -9.506796 116 104 78 
5.428571 -3.704762 -9.325714 116 104 78 
5.345794 -3.635514 -9.151402 113 102 74 
5.364486 -3.635514 -9.151402 113 101 75 
-2.180791 -2.209039 -5.532204 132 128 101 
-2.169492 -2.209039 -5.532204 133 129 102 
-2.170455 -2.221591 -5.563636 134 130 103 
-2.159091 -2.221591 -5.563636 135 131 106 
-3.401575 -3.518560 -8.811699 136 132 107 
-3.916667 -4.072917 -10.200000 137 133 108 
-5.781250 -6.109375 -15.300000 135 130 108 
-5.750000 -6.109375 -15.300000 135 130 108 
-5.718750 -6.109375 -15.300000 136 131 111 
-4.550000 -4.887500 -12.240000 137 132 112 
-3.770833 -4.072917 -10.200000 138 133 113 
-3.750000 -4.072917 -10.200000 138 133 113 
-3.196429 -3.491071 -8.742857 138 133 113 
-3.178571 -3.491071 -8.742857 134 131 114 
-3.160714 -3.491071 -8.742857 134 131 114 
-3.142857 -3.491071 -8.742857 134 131 114 
-3.679369 -4.110381 -10.293824 134 131 114 
-4.296296 -4.827160 -12.088889 133 130 113 
-4.271605 -4.827160 -12.088889 133 130 113 
-3.546392 -4.030928 -10.094846 132 129 112 
-1.561644 -1.785388 -4.471233 132 129 112 
-1.552511 -1.785388 -4.471233 131 128 111 
-1.543379 -1.785388 -4.471233 132 129 112 
-2.101642 -2.445661 -6.124785 133 130 113 
-2.089132 -2.445661 -6.124785 135 132 115 
-2.075000 -2.443750 -6.120000 137 134 117 
-2.062500 -2.443750 -6.120000 139 136 119 
-2.050000 -2.443750 -6.120000 140 137 120 
-2.037500 -2.443750 -6.120000 141 138 121 
-2.028169 -2.447574 -6.129578 139 133 111 
-2.017228 -2.449491 -6.134377 139 133 111 
-2.006270 -2.451411 -6.139185 140 134 112 
-1.993730 -2.451411 -6.139185 140 133 114 
-1.981191 -2.451411 -6.139185 139 134 114 
-1.970196 -2.453333 -6.144000 140 135 115 
-2.200976 -3.051707 -7.642537 134 136 114 
-2.185366 -3.051707 -7.642537 134 136 114 
-1.294194 -2.040444 -5.109981 144 144 120 
-1.280416 -2.035133 -5.096682 144 144 120 
-1.268356 -2.032489 -5.090058 145 145 121 
-1.257960 -2.032489 -5.090058 145 145 121 
-1.183280 -2.011575 -5.037685 141 141 117 
-1.163265 -1.994898 -4.995918 137 136 115 
-1.143580 -1.978495 -4.954839 136 135 114 
-1.133460 -1.978495 -4.954839 135 134 113 
-1.123340 -1.978495 -4.954839 135 134 113 
-1.113219 -1.978495 -4.954839 136 135 114 
-1.101010 -1.974747 -4.945455 139 138 117 
-1.090909 -1.974747 -4.945455 142 141 120 
-1.080808 -1.974747 -4.945455 144 143 122 
-1.128274 -2.100739 -5.260981 138 137 116 
-1.117529 -2.100739 -5.260981 138 137 116 
-1.107527 -2.102150 -5.264516 138 137 116 
-1.096774 -2.102150 -5.264516 139 138 117 
-1.087483 -2.104980 -5.271602 139 138 117 
-1.718245 -3.612009 -9.045728 147 146 125 
-1.690012 -3.591274 -8.993800 147 146 125 
-1.681293 -3.612009 -9.045728 148 147 126 
-1.678322 -3.645688 -9.130070 147 146 125 
-1.659674 -3.645688 -9.130070 147 146 125 
-1.641026 -3.645688 -9.130070 147 146 125 
-1.620489 -3.641443 -9.119441 146 145 124 
-1.609357 -3.658479 -9.162106 145 144 123 
-1.586931 -3.649942 -9.140723 144 143 122 
-1.584906 -3.688679 -9.237736 144 143 122 
-1.571598 -3.701775 -9.270533 143 142 121 
-1.550827 -3.697400 -9.259575 141 140 119 
-1.530106 -3.693034 -9.248642 142 141 120 
-1.509434 -3.688679 -9.237736 143 142 121 
-1.490566 -3.688679 -9.237736 144 143 122 
-1.473436 -3.693034 -9.248642 145 144 123 
-1.454545 -3.693034 -9.248642 146 145 124 
-1.437352 -3.697400 -9.259575 146 145 124 
-1.420118 -3.701775 -9.270533 147 146 125 
-0.838906 -2.376900 -5.952584 146 145 124 
-0.825493 -2.373293 -5.943551 146 145 124 
-0.813354 -2.373293 -5.943551 146 145 124 
-0.730796 -2.164706 -5.421176 143 142 122 
-0.719723 -2.164706 -5.421176 143 142 122 
-0.708160 -2.163209 -5.417428 143 142 122 
-0.697095 -2.163209 -5.417428 143 142 122 
-0.684138 -2.157241 -5.402483 143 142 122 
-0.673103 -2.157241 -5.402483 143 142 122 
-0.885609 -2.885609 -7.226568 144 143 123 
-0.872458 -2.890943 -7.239926 144 143 123 
-0.857671 -2.890943 -7.239926 146 145 125 
-0.842884 -2.890943 -7.239926 147 146 126 
-0.828096 -2.890943 -7.239926 150 149 129 
-0.811060 -2.882949 -7.219908 153 152 132 
-0.794848 -2.877645 -7.206624 157 156 136 
-0.781567 -2.882949 -7.219908 161 160 140 
-1.042606 -3.919800 -9.816542 163 162 142 
-1.022556 -3.919800 -9.816542 165 164 144 
-1.203007 -4.703759 -11.779850 163 165 144 
-1.425454 -5.687273 -14.242909 163 165 144 
-1.396364 -5.687273 -14.242909 162 164 143 
-1.364791 -5.676951 -14.217060 161 163 142 
-1.326126 -5.636036 -14.114594 161 163 142 
-1.290323 -5.605735 -14.038710 160 162 141 
-1.261649 -5.605735 -14.038710 159 161 140 
-0.141844 -1.848700 -4.629787 160 162 141 
-0.132153 -1.845428 -4.621593 160 162 141 
-0.122714 -1.845428 -4.621593 160 162 141 
-0.113274 -1.845428 -4.621593 160 162 141 
-0.103957 -1.847608 -4.627053 160 162 141 
0.351351 -1.761261 -4.410811 165 164 144 
0.360360 -1.761261 -4.410811 165 164 144 
0.369369 -1.761261 -4.410811 164 163 143 
0.378378 -1.761261 -4.410811 164 163 145 
0.387387 -1.761261 -4.410811 163 162 144 
0.396396 -1.761261 -4.410811 163 162 144 
0.405405 -1.761261 -4.410811 163 162 144 
0.414414 -1.761261 -4.410811 166 165 144 
0.423423 -1.761261 -4.410811 166 165 144 
0.432432 -1.761261 -4.410811 165 164 143 
0.441441 -1.761261 -4.410811 164 163 142 
0.459459 -1.761261 -4.410811 163 162 141 
0.468468 -1.761261 -4.410811 162 161 140 
0.477477 -1.761261 -4.410811 162 161 140 
0.486486 -1.761261 -4.410811 161 160 139 
0.495495 -1.761261 -4.410811 161 160 139 
0.504505 -1.761261 -4.410811 160 159 138 
0.513514 -1.761261 -4.410811 159 158 137 
0.522523 -1.761261 -4.410811 158 157 136 
1.480039 -3.045764 -7.627654 159 158 140 
1.494163 -3.042802 -7.620234 159 158 140 
1.509728 -3.042802 -7.620234 158 157 139 
1.526777 -3.045764 -7.627654 158 157 139 
1.542356 -3.045764 -7.627654 158 157 139 
1.262826 -2.468824 -6.182794 157 156 138 
1.264476 -2.447574 -6.129578 157 156 136 
1.269051 -2.432348 -6.091446 155 154 134 
1.281493 -2.432348 -6.091446 155 154 134 
1.265672 -2.334328 -5.845970 156 155 135 
1.274758 -2.329114 -5.832911 157 156 136 
1.286672 -2.329114 -5.832911 157 156 135 
1.312265 -2.353649 -5.894357 157 156 135 
1.325301 -2.355422 -5.898795 152 154 133 
1.225143 -1.787429 -4.476343 154 153 135 
1.234286 -1.787429 -4.476343 154 153 135 
1.242718 -1.786408 -4.473786 154 153 135 
1.247581 -1.780307 -4.458509 153 152 134 
1.256688 -1.780307 -4.458509 153 152 134 
1.266515 -1.781321 -4.461048 153 152 134 
1.277081 -1.783352 -4.466135 152 151 133 
1.324324 -1.761261 -4.410811 153 152 132 
1.333333 -1.761261 -4.410811 153 152 132 
1.342342 -1.761261 -4.410811 153 152 132 
13.187500 -12.218750 -30.600000 141 134 116 
13.250000 -12.218750 -30.600000 141 134 116 
13.312500 -12.218750 -30.600000 141 134 116 
13.375000 -12.218750 -30.600000 139 132 114 
13.437500 -12.218750 -30.600000 139 132 114 
13.500000 -12.218750 -30.600000 138 131 113 
13.562500 -12.218750 -30.600000 138 131 113 
13.625000 -12.218750 -30.600000 137 130 112 
13.687500 -12.218750 -30.600000 136 129 111 
13.750000 -12.218750 -30.600000 135 128 110 
13.243445 -11.715356 -29.339327 135 128 110 
13.303370 -11.715356 -29.339327 135 129 103 
4.823397 -3.518560 -8.811699 115 101 72 
4.803571 -3.491071 -8.742857 115 101 72 
4.821429 -3.491071 -8.742857 117 105 83 
4.839286 -3.491071 -8.742857 117 105 83 
4.857143 -3.491071 -8.742857 118 106 84 
4.875000 -3.491071 -8.742857 119 107 85 
4.892857 -3.491071 -8.742857 119 107 85 
4.910714 -3.491071 -8.742857 120 108 86 
4.928571 -3.491071 -8.742857 121 109 87 
4.946429 -3.491071 -8.742857 121 109 87 
5.504951 -3.871287 -9.695049 118 106 82 
5.524753 -3.871287 -9.695049 118 106 82 
5.544554 -3.871287 -9.695049 118 106 82 
5.564356 -3.871287 -9.695049 117 105 81 
5.584158 -3.871287 -9.695049 117 105 81 
5.495146 -3.796117 -9.506796 117 105 81 
5.514563 -3.796117 -9.506796 116 104 80 
5.327103 -3.654206 -9.151402 116 104 80 
5.211845 -3.562642 -8.922096 113 102 74 
5.364486 -3.654206 -9.151402 113 101 75 
-2.180791 -2.220339 -5.532204 133 129 102 
-2.169492 -2.220339 -5.532204 133 129 102 
-2.158192 -2.220339 -5.532204 135 131 104 
-2.159091 -2.232955 -5.563636 136 132 107 
-2.147727 -2.232955 -5.563636 137 133 108 
-3.916667 -4.093750 -10.200000 138 134 109 
-5.781250 -6.140625 -15.300000 135 130 108 
-5.750000 -6.140625 -15.300000 136 131 109 
-5.718750 -6.140625 -15.300000 137 132 112 
-5.687500 -6.140625 -15.300000 138 133 113 
-3.770833 -4.093750 -10.200000 138 133 113 
-3.750000 -4.093750 -10.200000 139 134 114 
-3.196429 -3.508929 -8.742857 139 134 114 
-3.178571 -3.508929 -8.742857 135 132 115 
-3.160714 -3.508929 -8.742857 135 132 115 
-3.142857 -3.508929 -8.742857 135 132 115 
-3.679369 -4.131406 -10.293824 134 131 114 
-4.296296 -4.851852 -12.088889 134 131 114 
-4.271605 -4.851852 -12.088889 134 131 114 
-4.246913 -4.851852 -12.088889 133 130 113 
-3.525773 -4.051547 -10.094846 133 130 113 
-1.552511 -1.794520 -4.471233 132 129 112 
-1.543379 -1.794520 -4.471233 133 130 113 
-2.101642 -2.458170 -6.124785 134 131 114 
-2.089132 -2.458170 -6.124785 135 132 115 
-2.076622 -2.458170 -6.124785 137 134 117 
-2.062500 -2.456250 -6.120000 138 135 118 
-2.050000 -2.456250 -6.120000 139 136 119 
-2.039093 -2.458170 -6.124785 140 137 120 
-2.028169 -2.460094 -6.129578 140 134 112 
-2.018809 -2.463950 -6.139185 140 134 112 
-2.007843 -2.465882 -6.144000 140 134 112 
-1.995294 -2.465882 -6.144000 141 134 115 
-1.982745 -2.465882 -6.144000 140 135 115 
-1.970196 -2.465882 -6.144000 140 135 115 
-1.294194 -2.050881 -5.109981 143 143 119 
-1.280416 -2.045543 -5.096682 143 143 119 
-1.267532 -2.041559 -5.086753 144 144 120 
-1.257143 -2.041559 -5.086753 144 144 120 
-1.203632 -2.038910 -5.080156 140 140 116 
-1.187097 -2.028387 -5.053936 140 140 116 
-1.163265 -2.005102 -4.995918 137 136 115 
-1.144304 -1.989873 -4.957975 136 135 114 
-1.134177 -1.989873 -4.957975 135 134 113 
-1.124051 -1.989873 -4.957975 135 134 113 
-1.113219 -1.988615 -4.954839 136 135 114 
-1.101010 -1.984848 -4.945455 139 138 117 
-1.090909 -1.984848 -4.945455 142 141 120 
-1.080808 -1.984848 -4.945455 144 143 122 
-1.139019 -2.111484 -5.260981 139 138 117 
-1.128274 -2.111484 -5.260981 139 138 117 
-1.117529 -2.111484 -5.260981 139 138 117 
-1.107527 -2.112903 -5.264516 139 138 117 
-1.097512 -2.114324 -5.268056 140 139 118 
-1.086752 -2.114324 -5.268056 140 139 118 
-0.959808 -1.886023 -4.699220 141 140 119 
-0.950210 -1.886023 -4.699220 141 140 119 
-0.940612 -1.886023 -4.699220 147 146 125 
-1.724218 -3.643106 -9.077173 148 147 126 
-1.699769 -3.630485 -9.045728 149 148 127 
-1.681293 -3.630485 -9.045728 149 148 127 
-1.676368 -3.660070 -9.119441 148 147 126 
-1.657742 -3.660070 -9.119441 148 147 126 
-1.639115 -3.660070 -9.119441 147 146 125 
-1.620489 -3.660070 -9.119441 147 146 125 
-1.601863 -3.660070 -9.119441 146 145 124 
-1.583236 -3.660070 -9.119441 145 144 123 
-1.568261 -3.668612 -9.140723 144 143 122 
-1.564193 -3.703180 -9.226855 144 143 122 
-1.547170 -3.707547 -9.237736 143 142 121 
-1.528302 -3.707547 -9.237736 143 142 121 
-1.507656 -3.703180 -9.226855 144 143 122 
-1.488810 -3.703180 -9.226855 144 143 122 
-1.471698 -3.707547 -9.237736 145 144 123 
-1.452830 -3.707547 -9.237736 145 144 123 
-1.435655 -3.711925 -9.248642 146 145 124 
-1.418440 -3.716312 -9.259575 146 145 124 
-0.838906 -2.389058 -5.952584 147 146 125 
-0.825493 -2.385432 -5.943551 147 146 125 
-0.812737 -2.383624 -5.939045 147 146 125 
-0.795780 -2.369254 -5.903241 141 140 120 
-0.719225 -2.174274 -5.417428 141 140 120 
-0.707671 -2.172771 -5.413683 142 141 121 
-0.695172 -2.168276 -5.402483 142 141 121 
-0.683196 -2.165289 -5.395041 143 142 122 
-0.672640 -2.166781 -5.398759 144 143 123 
-0.883978 -2.895028 -7.213260 144 143 123 
-0.870849 -2.900369 -7.226568 144 143 123 
-0.856089 -2.900369 -7.226568 153 152 132 
-0.841328 -2.900369 -7.226568 154 153 133 
-0.826568 -2.900369 -7.226568 156 155 135 
-0.811060 -2.897696 -7.219908 157 156 136 
-0.794848 -2.892364 -7.206624 159 158 138 
-1.062657 -3.939850 -9.816542 161 160 140 
-1.249249 -4.720721 -11.762162 163 162 142 
-1.225225 -4.720721 -11.762162 163 162 142 
-1.206637 -4.742082 -11.815385 163 165 144 
-1.425454 -5.716363 -14.242909 163 165 144 
-1.396364 -5.716363 -14.242909 162 164 143 
-1.362319 -5.695652 -14.191304 161 163 142 
-1.326126 -5.664865 -14.114594 161 163 142 
-1.290323 -5.634408 -14.038710 160 162 141 
-1.261649 -5.634408 -14.038710 159 161 140 
-0.141509 -1.853774 -4.618868 160 162 141 
-0.132075 -1.853774 -4.618868 160 162 141 
-0.122642 -1.853774 -4.618868 160 162 141 
-0.113208 -1.853774 -4.618868 160 162 141 
0.360360 -1.770270 -4.410811 165 164 144 
0.369369 -1.770270 -4.410811 164 163 143 
0.378378 -1.770270 -4.410811 164 163 143 
0.387387 -1.770270 -4.410811 163 162 144 
0.396396 -1.770270 -4.410811 163 162 144 
0.405405 -1.770270 -4.410811 163 162 144 
0.414414 -1.770270 -4.410811 166 165 144 
0.423423 -1.770270 -4.410811 165 164 143 
0.432432 -1.770270 -4.410811 165 164 143 
0.441441 -1.770270 -4.410811 164 163 142 
0.450450 -1.770270 -4.410811 163 162 141 
0.459459 -1.770270 -4.410811 162 161 140 
0.468468 -1.770270 -4.410811 162 161 140 
0.477477 -1.770270 -4.410811 162 161 140 
0.486486 -1.770270 -4.410811 161 160 139 
0.495495 -1.770270 -4.410811 160 159 138 
0.504505 -1.770270 -4.410811 160 159 138 
0.513514 -1.770270 -4.410811 159 158 137 
1.480039 -3.061344 -7.627654 159 157 142 
1.494163 -3.058366 -7.620234 159 157 142 
1.509728 -3.058366 -7.620234 159 157 142 
1.526777 -3.061344 -7.627654 158 156 141 
1.542356 -3.061344 -7.627654 158 157 139 
1.262826 -2.481452 -6.182794 158 157 139 
1.263487 -2.458170 -6.124785 157 156 138 
1.268065 -2.442890 -6.086713 155 154 134 
1.280497 -2.442890 -6.086713 156 155 135 
1.265672 -2.346269 -5.845970 157 156 136 
1.274758 -2.341027 -5.832911 157 156 135 
1.286672 -2.341027 -5.832911 157 156 135 
1.309309 -2.360360 -5.881081 157 156 135 
1.324304 -2.365689 -5.894357 153 155 134 
1.225143 -1.796571 -4.476343 154 153 135 
1.234286 -1.796571 -4.476343 154 153 135 
1.242718 -1.795545 -4.473786 154 153 135 
1.247581 -1.789414 -4.458509 154 153 135 
1.255973 -1.788396 -4.455973 153 152 134 
1.265074 -1.788396 -4.455973 153 152 134 
1.275626 -1.790433 -4.461048 153 152 134 
1.324324 -1.770270 -4.410811 153 152 132 
1.333333 -1.770270 -4.410811 153 152 132 
1.342342 -1.770270 -4.410811 153 152 132 
13.187500 -12.281250 -30.600000 141 134 115 
13.250000 -12.281250 -30.600000 141 134 115 
13.312500 -12.281250 -30.600000 141 134 115 
13.375000 -12.281250 -30.600000 139 132 113 
13.437500 -12.281250 -30.600000 139 132 113 
13.500000 -12.281250 -30.600000 139 132 113 
13.562500 -12.281250 -30.600000 138 131 112 
13.625000 -12.281250 -30.600000 137 130 111 
13.687500 -12.281250 -30.600000 136 129 110 
13.750000 -12.281250 -30.600000 136 129 110 
13.243445 -11.775281 -29.339327 135 128 109 
13.303370 -11.775281 -29.339327 135 129 103 
4.823397 -3.536558 -8.811699 115 101 72 
4.803571 -3.508929 -8.742857 115 101 72 
4.821429 -3.508929 -8.742857 117 105 83 
4.839286 -3.508929 -8.742857 117 105 83 
4.857143 -3.508929 -8.742857 118 106 84 
4.875000 -3.508929 -8.742857 119 107 85 
4.892857 -3.508929 -8.742857 119 107 85 
4.910714 -3.508929 -8.742857 120 108 86 
4.928571 -3.508929 -8.742857 121 109 87 
4.946429 -3.508929 -8.742857 121 109 87 
5.504951 -3.891089 -9.695049 118 106 82 
5.564356 -3.891089 -9.695049 118 106 82 
5.584158 -3.891089 -9.695049 117 105 81 
5.603961 -3.891089 -9.695049 117 105 81 
5.111361 -3.536558 -8.811699 117 105 81 
5.129359 -3.536558 -8.811699 116 104 80 
5.147357 -3.536558 -8.811699 113 102 74 
5.165354 -3.536558 -8.811699 113 101 75 
-2.180791 -2.231638 -5.532204 134 130 103 
-2.169492 -2.231638 -5.532204 135 131 104 
-2.170455 -2.244318 -5.563636 136 132 105 
-2.159091 -2.244318 -5.563636 137 133 108 
